60.412724 5.939967 29.648733 0.000000 0.000000 0.000000 
60.891644 5.939967 32.372005 0.000000 0.000000 0.000000 
59.634941 11.879933 25.226072 0.000000 0.000000 0.000000 
59.336082 9.899944 23.526676 0.000000 0.000000 0.000000 
59.815002 9.899944 26.249947 0.000000 0.000000 0.000000 
58.501282 14.307931 23.402782 0.000000 0.000000 0.000000 
59.385426 14.674156 25.833504 0.000000 0.000000 0.000000 
59.454880 9.899944 24.202194 0.000000 0.000000 0.000000 
59.933804 9.899944 26.925467 0.000000 0.000000 0.000000 
59.533413 13.098012 24.648758 0.000000 0.000000 0.000000 
59.933804 13.859922 26.925467 0.000000 0.000000 0.000000 
60.592781 11.879933 30.672609 0.000000 0.000000 0.000000 
60.293922 9.899944 28.973215 0.000000 0.000000 0.000000 
60.772846 9.899944 31.696486 0.000000 0.000000 0.000000 
60.293922 13.859922 28.973215 0.000000 0.000000 0.000000 
60.772846 13.859922 31.696486 0.000000 0.000000 0.000000 
60.412724 9.899944 29.648733 0.000000 0.000000 0.000000 
60.891644 9.899944 32.372005 0.000000 0.000000 0.000000 
60.412724 13.859922 29.648733 0.000000 0.000000 0.000000 
60.891644 13.859922 32.372005 0.000000 0.000000 0.000000 
43.693230 3.176637 36.777470 0.000000 0.000000 0.000000 
43.770977 1.872354 35.290695 0.000000 0.000000 0.000000 
43.866371 1.926254 38.093910 0.000000 0.000000 0.000000 
43.412228 5.327552 35.309433 0.000000 0.000000 0.000000 
43.510616 5.337450 38.113441 0.000000 0.000000 0.000000 
43.892899 3.196724 42.385269 0.000000 0.000000 0.000000 
43.961769 1.979989 40.897121 0.000000 0.000000 0.000000 
44.057201 1.979989 43.701366 0.000000 0.000000 0.000000 
43.608997 5.347348 40.917442 0.000000 0.000000 0.000000 
43.707386 5.357245 43.721451 0.000000 0.000000 0.000000 
42.712357 9.628819 36.815918 0.000000 0.000000 0.000000 
42.903481 9.677893 42.423958 0.000000 0.000000 0.000000 
61.550625 3.959978 36.119152 0.000000 0.000000 0.000000 
61.251762 1.979989 34.419758 0.000000 0.000000 0.000000 
61.730682 1.979989 37.143028 0.000000 0.000000 0.000000 
61.251762 5.939967 34.419758 0.000000 0.000000 0.000000 
61.730682 5.939967 37.143028 0.000000 0.000000 0.000000 
61.370564 1.979989 35.095276 0.000000 0.000000 0.000000 
61.849483 1.979989 37.818546 0.000000 0.000000 0.000000 
61.370564 5.939967 35.095276 0.000000 0.000000 0.000000 
61.849483 5.939967 37.818546 0.000000 0.000000 0.000000 
62.508465 3.959978 41.565685 0.000000 0.000000 0.000000 
62.209606 1.979989 39.866291 0.000000 0.000000 0.000000 
62.688526 1.979989 42.589561 0.000000 0.000000 0.000000 
62.209606 5.939967 39.866291 0.000000 0.000000 0.000000 
62.688526 5.939967 42.589561 0.000000 0.000000 0.000000 
62.328403 1.979989 40.541809 0.000000 0.000000 0.000000 
62.807327 1.979989 43.265079 0.000000 0.000000 0.000000 
62.328403 5.939967 40.541809 0.000000 0.000000 0.000000 
62.807327 5.939967 43.265079 0.000000 0.000000 0.000000 
61.550625 11.879933 36.119152 0.000000 0.000000 0.000000 
61.251762 9.899944 34.419758 0.000000 0.000000 0.000000 
61.730682 9.899944 37.143028 0.000000 0.000000 0.000000 
61.251762 13.859922 34.419758 0.000000 0.000000 0.000000 
61.730682 13.859922 37.143028 0.000000 0.000000 0.000000 
61.370564 9.899944 35.095276 0.000000 0.000000 0.000000 
61.849483 9.899944 37.818546 0.000000 0.000000 0.000000 
61.370564 13.859922 35.095276 0.000000 0.000000 0.000000 
61.849483 13.859922 37.818546 0.000000 0.000000 0.000000 
62.508465 11.879933 41.565685 0.000000 0.000000 0.000000 
62.209606 9.899944 39.866291 0.000000 0.000000 0.000000 
62.688526 9.899944 42.589561 0.000000 0.000000 0.000000 
62.209606 13.859922 39.866291 0.000000 0.000000 0.000000 
62.688526 13.859922 42.589561 0.000000 0.000000 0.000000 
62.328403 9.899944 40.541809 0.000000 0.000000 0.000000 
62.807327 9.899944 43.265079 0.000000 0.000000 0.000000 
62.328403 13.859922 40.541809 0.000000 0.000000 0.000000 
62.807327 13.859922 43.265079 0.000000 0.000000 0.000000 
55.574787 21.496120 23.522350 0.000000 0.000000 0.000000 
54.009861 23.648031 21.941727 0.000000 0.000000 0.000000 
56.255569 18.977983 22.672253 0.000000 0.000000 0.000000 
57.139717 19.344210 25.102974 0.000000 0.000000 0.000000 
55.043400 22.435863 23.188814 0.000000 0.000000 0.000000 
55.927547 22.802088 25.619534 0.000000 0.000000 0.000000 
57.343075 22.228569 28.383789 0.000000 0.000000 0.000000 
58.023861 19.710434 27.533691 0.000000 0.000000 0.000000 
56.811691 23.168312 28.050251 0.000000 0.000000 0.000000 
57.695835 23.534538 30.480972 0.000000 0.000000 0.000000 
53.150448 28.411882 24.555471 0.000000 0.000000 0.000000 
52.797691 27.105915 22.458286 0.000000 0.000000 0.000000 
53.681835 27.472141 24.889008 0.000000 0.000000 0.000000 
51.585518 30.563793 22.974848 0.000000 0.000000 0.000000 
52.469666 30.930019 25.405567 0.000000 0.000000 0.000000 
53.831230 25.893745 23.705376 0.000000 0.000000 0.000000 
54.715378 26.259972 26.136095 0.000000 0.000000 0.000000 
52.619061 29.351624 24.221937 0.000000 0.000000 0.000000 
53.503204 29.717850 26.652657 0.000000 0.000000 0.000000 
54.918736 29.144331 29.416910 0.000000 0.000000 0.000000 
54.565979 27.838364 27.319725 0.000000 0.000000 0.000000 
52.504128 32.704227 28.731468 0.000000 0.000000 0.000000 
52.842777 33.042877 31.454739 0.000000 0.000000 0.000000 
55.599518 26.626194 28.566813 0.000000 0.000000 0.000000 
56.483665 26.992420 30.997532 0.000000 0.000000 0.000000 
54.387348 30.084074 29.083374 0.000000 0.000000 0.000000 
54.882164 31.122288 31.932404 0.000000 0.000000 0.000000 
57.641869 19.071779 26.016529 0.000000 0.000000 0.000000 
57.289112 17.765812 23.919344 0.000000 0.000000 0.000000 
58.173256 18.132036 26.350063 0.000000 0.000000 0.000000 
56.076939 21.223690 24.435905 0.000000 0.000000 0.000000 
56.961086 21.589916 26.866625 0.000000 0.000000 0.000000 
58.322647 16.553640 25.166433 0.000000 0.000000 0.000000 
59.206795 16.919867 27.597155 0.000000 0.000000 0.000000 
57.110477 20.011520 25.682995 0.000000 0.000000 0.000000 
57.994625 20.377745 28.113714 0.000000 0.000000 0.000000 
59.410156 19.804228 30.877968 0.000000 0.000000 0.000000 
59.057400 18.498260 28.780781 0.000000 0.000000 0.000000 
59.941547 18.864487 31.211502 0.000000 0.000000 0.000000 
57.845230 21.956141 29.297342 0.000000 0.000000 0.000000 
58.729378 22.322365 31.728062 0.000000 0.000000 0.000000 
60.090939 17.286091 30.027872 0.000000 0.000000 0.000000 
60.895844 17.779125 32.395905 0.000000 0.000000 0.000000 
58.878765 20.743969 30.544432 0.000000 0.000000 0.000000 
59.762913 21.110195 32.975151 0.000000 0.000000 0.000000 
55.217529 25.987541 27.049650 0.000000 0.000000 0.000000 
54.864769 24.681574 24.952467 0.000000 0.000000 0.000000 
55.748917 25.047798 27.383186 0.000000 0.000000 0.000000 
53.652599 28.139452 25.469027 0.000000 0.000000 0.000000 
54.536747 28.505678 27.899748 0.000000 0.000000 0.000000 
56.782452 23.835629 28.630276 0.000000 0.000000 0.000000 
56.985817 26.719990 31.911089 0.000000 0.000000 0.000000 
56.633060 25.414022 29.813904 0.000000 0.000000 0.000000 
57.517208 25.780249 32.244625 0.000000 0.000000 0.000000 
55.420891 28.871902 30.330465 0.000000 0.000000 0.000000 
56.305038 29.238127 32.761185 0.000000 0.000000 0.000000 
57.666595 24.201853 31.060993 0.000000 0.000000 0.000000 
58.550743 24.568077 33.491714 0.000000 0.000000 0.000000 
56.454426 27.659731 31.577555 0.000000 0.000000 0.000000 
57.338573 28.025957 34.008274 0.000000 0.000000 0.000000 
59.111366 22.961020 33.245228 0.000000 0.000000 0.000000 
58.579983 23.900763 32.911690 0.000000 0.000000 0.000000 
60.879658 23.693470 38.106663 0.000000 0.000000 0.000000 
55.330738 31.570864 35.539646 0.000000 0.000000 0.000000 
53.181423 33.381523 34.178013 0.000000 0.000000 0.000000 
53.520073 33.720173 36.901279 0.000000 0.000000 0.000000 
57.367809 27.358644 33.428253 0.000000 0.000000 0.000000 
58.251957 27.724871 35.858974 0.000000 0.000000 0.000000 
55.220814 31.460939 34.655674 0.000000 0.000000 0.000000 
55.559460 31.799585 37.378944 0.000000 0.000000 0.000000 
56.008038 32.248161 40.986179 0.000000 0.000000 0.000000 
53.858719 34.058819 39.624546 0.000000 0.000000 0.000000 
57.818699 30.098846 39.624546 0.000000 0.000000 0.000000 
55.898109 32.138233 40.102207 0.000000 0.000000 0.000000 
56.236759 32.476883 42.825478 0.000000 0.000000 0.000000 
61.178448 20.536678 35.739407 0.000000 0.000000 0.000000 
61.251762 17.819901 34.419758 0.000000 0.000000 0.000000 
61.730682 17.819901 37.143028 0.000000 0.000000 0.000000 
59.613525 22.688591 34.158783 0.000000 0.000000 0.000000 
60.497665 23.054815 36.589504 0.000000 0.000000 0.000000 
61.370564 17.819901 35.095276 0.000000 0.000000 0.000000 
61.849483 17.819901 37.818546 0.000000 0.000000 0.000000 
60.647057 21.476419 35.405872 0.000000 0.000000 0.000000 
61.531204 21.842644 37.836594 0.000000 0.000000 0.000000 
62.508465 19.799889 41.565685 0.000000 0.000000 0.000000 
62.209606 17.819901 39.866291 0.000000 0.000000 0.000000 
62.688526 17.819901 42.589561 0.000000 0.000000 0.000000 
61.381809 23.421040 39.020218 0.000000 0.000000 0.000000 
62.688526 21.779877 42.589561 0.000000 0.000000 0.000000 
62.328403 17.819901 40.541809 0.000000 0.000000 0.000000 
62.807327 17.819901 43.265079 0.000000 0.000000 0.000000 
62.328403 21.779877 40.541809 0.000000 0.000000 0.000000 
62.807327 21.779877 43.265079 0.000000 0.000000 0.000000 
58.754108 27.452440 36.772530 0.000000 0.000000 0.000000 
58.401352 26.146473 34.675346 0.000000 0.000000 0.000000 
59.285496 26.512697 37.106064 0.000000 0.000000 0.000000 
57.189182 29.604353 35.191906 0.000000 0.000000 0.000000 
57.598850 29.878990 37.856609 0.000000 0.000000 0.000000 
59.434891 24.934303 35.922432 0.000000 0.000000 0.000000 
60.319035 25.300528 38.353153 0.000000 0.000000 0.000000 
58.222717 28.392181 36.438995 0.000000 0.000000 0.000000 
59.154099 28.553814 38.781689 0.000000 0.000000 0.000000 
60.086815 28.406977 41.941509 0.000000 0.000000 0.000000 
60.169640 26.878922 39.536777 0.000000 0.000000 0.000000 
60.196735 28.516901 42.825481 0.000000 0.000000 0.000000 
57.937500 30.217640 40.579876 0.000000 0.000000 0.000000 
58.276146 30.556288 43.303146 0.000000 0.000000 0.000000 
61.203175 25.666752 40.783867 0.000000 0.000000 0.000000 
62.087322 26.032976 43.214588 0.000000 0.000000 0.000000 
59.976887 28.297050 41.057537 0.000000 0.000000 0.000000 
60.315536 28.635698 43.780807 0.000000 0.000000 0.000000 
35.639809 35.639801 2.971801 0.000000 0.000000 0.000000 
33.157677 33.188267 2.091230 0.000000 0.000000 0.000000 
33.798317 33.789867 2.971801 0.000000 0.000000 0.000000 
33.659821 37.619789 2.971801 0.000000 0.000000 0.000000 
33.659821 37.619789 2.971801 0.000000 0.000000 0.000000 
37.619797 33.659813 2.971801 0.000000 0.000000 0.000000 
37.619797 33.659813 2.971801 0.000000 0.000000 0.000000 
37.619797 37.619789 2.971801 0.000000 0.000000 0.000000 
37.619797 37.619789 2.971801 0.000000 0.000000 0.000000 
35.639809 35.639801 2.971801 0.000000 0.000000 0.000000 
33.798317 33.789867 2.971801 0.000000 0.000000 0.000000 
30.305866 30.416115 12.685559 0.000000 0.000000 0.000000 
33.659821 37.619789 2.971800 0.000000 0.000000 0.000000 
35.827068 42.851990 7.596548 0.000000 0.000000 0.000000 
37.619797 33.659813 2.971801 0.000000 0.000000 0.000000 
42.852005 35.827065 7.596544 0.000000 0.000000 0.000000 
39.835594 39.835587 6.467649 0.000000 0.000000 0.000000 
40.174244 40.174236 9.190919 0.000000 0.000000 0.000000 
34.822193 41.585850 3.648664 0.000000 0.000000 0.000000 
33.659821 41.579765 2.971800 0.000000 0.000000 0.000000 
33.882450 42.117237 3.982199 0.000000 0.000000 0.000000 
32.330154 42.329647 2.971800 0.000000 0.000000 0.000000 
32.670280 43.150780 5.229287 0.000000 0.000000 0.000000 
37.110268 40.349659 2.971800 0.000000 0.000000 0.000000 
37.340328 40.905067 4.498760 0.000000 0.000000 0.000000 
35.761932 41.054462 3.315130 0.000000 0.000000 0.000000 
36.128159 41.938610 5.745849 0.000000 0.000000 0.000000 
35.554642 43.354141 8.510102 0.000000 0.000000 0.000000 
34.248676 43.001385 6.412917 0.000000 0.000000 0.000000 
34.614899 43.885529 8.843637 0.000000 0.000000 0.000000 
33.036507 44.034924 7.660006 0.000000 0.000000 0.000000 
33.402729 44.919067 10.090725 0.000000 0.000000 0.000000 
37.706554 41.789215 6.929478 0.000000 0.000000 0.000000 
38.253654 42.213623 9.668583 0.000000 0.000000 0.000000 
36.494385 42.822754 8.176567 0.000000 0.000000 0.000000 
36.860607 43.706898 10.607286 0.000000 0.000000 0.000000 
41.585869 34.822186 3.648663 0.000000 0.000000 0.000000 
41.579781 33.659813 2.971801 0.000000 0.000000 0.000000 
42.117256 33.882442 3.982197 0.000000 0.000000 0.000000 
40.349674 37.110264 2.971801 0.000000 0.000000 0.000000 
40.905083 37.340321 4.498760 0.000000 0.000000 0.000000 
42.329662 32.330147 2.971802 0.000000 0.000000 0.000000 
43.150799 32.670273 5.229286 0.000000 0.000000 0.000000 
41.054478 35.761925 3.315129 0.000000 0.000000 0.000000 
41.938625 36.128151 5.745848 0.000000 0.000000 0.000000 
43.354160 35.554634 8.510101 0.000000 0.000000 0.000000 
43.001404 34.248669 6.412916 0.000000 0.000000 0.000000 
43.885548 34.614891 8.843636 0.000000 0.000000 0.000000 
41.789230 37.706547 6.929478 0.000000 0.000000 0.000000 
42.213638 38.253647 9.668584 0.000000 0.000000 0.000000 
44.034943 33.036499 7.660004 0.000000 0.000000 0.000000 
44.919086 33.402721 10.090724 0.000000 0.000000 0.000000 
42.822769 36.494377 8.176566 0.000000 0.000000 0.000000 
43.706913 36.860600 10.607286 0.000000 0.000000 0.000000 
39.505825 39.505810 3.815738 0.000000 0.000000 0.000000 
39.400879 39.400856 2.971800 0.000000 0.000000 0.000000 
39.615749 39.615734 4.699709 0.000000 0.000000 0.000000 
38.540405 40.967838 5.812520 0.000000 0.000000 0.000000 
40.967857 38.540386 5.812515 0.000000 0.000000 0.000000 
40.183125 40.183109 9.262278 0.000000 0.000000 0.000000 
39.954399 39.954384 7.422978 0.000000 0.000000 0.000000 
40.293049 40.293034 10.146248 0.000000 0.000000 0.000000 
38.033810 41.993771 7.900643 0.000000 0.000000 0.000000 
38.372459 42.332420 10.623912 0.000000 0.000000 0.000000 
41.993786 38.033794 7.900643 0.000000 0.000000 0.000000 
42.332436 38.372444 10.623912 0.000000 0.000000 0.000000 
40.622818 40.622810 12.798159 0.000000 0.000000 0.000000 
30.308624 30.418781 12.795895 0.000000 0.000000 0.000000 
30.378742 30.486593 15.599995 0.000000 0.000000 0.000000 
40.512894 40.512886 11.914188 0.000000 0.000000 0.000000 
40.851540 40.851532 14.637458 0.000000 0.000000 0.000000 
30.453819 30.624292 19.903419 0.000000 0.000000 0.000000 
30.448854 30.554403 18.404097 0.000000 0.000000 0.000000 
30.518972 30.622215 21.208195 0.000000 0.000000 0.000000 
41.190189 41.190182 17.360729 0.000000 0.000000 0.000000 
41.528839 41.528831 20.083996 0.000000 0.000000 0.000000 
36.781643 44.701588 13.753487 0.000000 0.000000 0.000000 
34.981125 44.769676 11.274356 0.000000 0.000000 0.000000 
36.891563 44.811508 14.637458 0.000000 0.000000 0.000000 
33.768955 45.803215 12.521444 0.000000 0.000000 0.000000 
34.135181 46.687363 14.952162 0.000000 0.000000 0.000000 
38.592304 42.552273 12.391852 0.000000 0.000000 0.000000 
38.930954 42.890923 15.115122 0.000000 0.000000 0.000000 
36.671715 44.591660 12.869517 0.000000 0.000000 0.000000 
37.010365 44.930309 15.592786 0.000000 0.000000 0.000000 
37.458935 45.378880 19.200026 0.000000 0.000000 0.000000 
37.230213 45.150158 17.360729 0.000000 0.000000 0.000000 
37.568863 45.488808 20.083996 0.000000 0.000000 0.000000 
34.501404 47.571507 17.382881 0.000000 0.000000 0.000000 
35.648273 47.528194 20.561659 0.000000 0.000000 0.000000 
39.269600 43.229568 17.838392 0.000000 0.000000 0.000000 
39.608250 43.568218 20.561659 0.000000 0.000000 0.000000 
37.349010 45.268955 18.316057 0.000000 0.000000 0.000000 
37.687660 45.607605 21.039324 0.000000 0.000000 0.000000 
44.701599 36.781631 13.753488 0.000000 0.000000 0.000000 
44.769695 34.981117 11.274355 0.000000 0.000000 0.000000 
44.811523 36.891556 14.637458 0.000000 0.000000 0.000000 
42.552284 38.592293 12.391853 0.000000 0.000000 0.000000 
42.890934 38.930943 15.115123 0.000000 0.000000 0.000000 
45.803234 33.768948 12.521442 0.000000 0.000000 0.000000 
46.687378 34.135174 14.952162 0.000000 0.000000 0.000000 
44.591671 36.671703 12.869517 0.000000 0.000000 0.000000 
44.930321 37.010353 15.592787 0.000000 0.000000 0.000000 
45.378895 37.458927 19.200027 0.000000 0.000000 0.000000 
45.150169 37.230202 17.360729 0.000000 0.000000 0.000000 
45.488819 37.568851 20.083996 0.000000 0.000000 0.000000 
43.229584 39.269592 17.838394 0.000000 0.000000 0.000000 
43.568230 39.608238 20.561661 0.000000 0.000000 0.000000 
47.571522 34.501396 17.382881 0.000000 0.000000 0.000000 
47.528206 35.648262 20.561661 0.000000 0.000000 0.000000 
45.268970 37.349003 18.316057 0.000000 0.000000 0.000000 
45.607616 37.687649 21.039324 0.000000 0.000000 0.000000 
40.860420 40.860405 14.708817 0.000000 0.000000 0.000000 
40.631695 40.631680 12.869517 0.000000 0.000000 0.000000 
40.970345 40.970329 15.592787 0.000000 0.000000 0.000000 
38.711105 42.671066 13.347182 0.000000 0.000000 0.000000 
39.049755 43.009716 16.070452 0.000000 0.000000 0.000000 
42.671082 38.711090 13.347182 0.000000 0.000000 0.000000 
43.009731 39.049740 16.070452 0.000000 0.000000 0.000000 
41.537716 41.537701 20.155355 0.000000 0.000000 0.000000 
41.308994 41.308979 18.316057 0.000000 0.000000 0.000000 
41.647640 41.647625 21.039324 0.000000 0.000000 0.000000 
39.388405 43.348366 18.793722 0.000000 0.000000 0.000000 
39.727051 43.687012 21.516989 0.000000 0.000000 0.000000 
43.348381 39.388390 18.793722 0.000000 0.000000 0.000000 
43.687027 39.727036 21.516989 0.000000 0.000000 0.000000 
41.427792 41.427776 19.271385 0.000000 0.000000 0.000000 
41.766441 41.766426 21.994654 0.000000 0.000000 0.000000 
32.397850 43.652931 6.142844 0.000000 0.000000 0.000000 
31.458107 44.184319 6.476379 0.000000 0.000000 0.000000 
33.130299 45.421223 11.004283 0.000000 0.000000 0.000000 
31.824333 45.068466 8.907097 0.000000 0.000000 0.000000 
32.190556 45.952610 11.337817 0.000000 0.000000 0.000000 
35.648438 44.740440 11.854378 0.000000 0.000000 0.000000 
38.264179 41.470867 6.724443 0.000000 0.000000 0.000000 
37.045853 43.689518 10.746553 0.000000 0.000000 0.000000 
33.862747 47.189510 15.865721 0.000000 0.000000 0.000000 
32.556782 46.836758 13.768536 0.000000 0.000000 0.000000 
32.923008 47.720901 16.199253 0.000000 0.000000 0.000000 
31.710838 48.754440 17.446344 0.000000 0.000000 0.000000 
35.978691 45.632893 14.269621 0.000000 0.000000 0.000000 
35.369530 46.742218 16.280676 0.000000 0.000000 0.000000 
34.088676 49.074741 20.509220 0.000000 0.000000 0.000000 
33.289234 48.605049 18.629972 0.000000 0.000000 0.000000 
33.655457 49.489193 21.060690 0.000000 0.000000 0.000000 
32.077065 49.638584 19.877064 0.000000 0.000000 0.000000 
32.443287 50.522728 22.307781 0.000000 0.000000 0.000000 
35.428417 47.308346 18.793722 0.000000 0.000000 0.000000 
35.767067 47.646996 21.516989 0.000000 0.000000 0.000000 
34.286407 48.714657 19.856438 0.000000 0.000000 0.000000 
33.846478 49.686382 21.994654 0.000000 0.000000 0.000000 
31.438408 49.256588 18.359900 0.000000 0.000000 0.000000 
32.170860 51.024879 23.221336 0.000000 0.000000 0.000000 
37.019241 44.939186 15.664145 0.000000 0.000000 0.000000 
37.696533 45.616478 21.110685 0.000000 0.000000 0.000000 
37.467812 45.387756 19.271387 0.000000 0.000000 0.000000 
37.806461 45.726406 21.994654 0.000000 0.000000 0.000000 
43.652946 32.397846 6.142840 0.000000 0.000000 0.000000 
44.184330 31.458101 6.476377 0.000000 0.000000 0.000000 
45.421234 33.130295 11.004279 0.000000 0.000000 0.000000 
45.068478 31.824327 8.907095 0.000000 0.000000 0.000000 
45.952621 32.190552 11.337815 0.000000 0.000000 0.000000 
44.740452 35.648430 11.854375 0.000000 0.000000 0.000000 
41.470882 38.264160 6.724436 0.000000 0.000000 0.000000 
43.689537 37.045837 10.746548 0.000000 0.000000 0.000000 
47.189526 33.862743 15.865718 0.000000 0.000000 0.000000 
46.836765 32.556778 13.768534 0.000000 0.000000 0.000000 
47.720909 32.923000 16.199253 0.000000 0.000000 0.000000 
45.632908 35.978676 14.269615 0.000000 0.000000 0.000000 
46.742233 35.369514 16.280670 0.000000 0.000000 0.000000 
48.754448 31.710831 17.446342 0.000000 0.000000 0.000000 
49.074757 34.088661 20.509216 0.000000 0.000000 0.000000 
48.605057 33.289227 18.629972 0.000000 0.000000 0.000000 
49.489201 33.655449 21.060690 0.000000 0.000000 0.000000 
47.308353 35.428410 18.793722 0.000000 0.000000 0.000000 
47.647003 35.767059 21.516989 0.000000 0.000000 0.000000 
49.638596 32.077057 19.877062 0.000000 0.000000 0.000000 
50.522739 32.443279 22.307779 0.000000 0.000000 0.000000 
48.714672 34.286392 19.856432 0.000000 0.000000 0.000000 
49.686394 33.846474 21.994652 0.000000 0.000000 0.000000 
44.939198 37.019230 15.664144 0.000000 0.000000 0.000000 
45.616493 37.696526 21.110683 0.000000 0.000000 0.000000 
45.387764 37.467796 19.271387 0.000000 0.000000 0.000000 
45.726414 37.806446 21.994654 0.000000 0.000000 0.000000 
49.256607 31.438402 18.359898 0.000000 0.000000 0.000000 
51.024895 32.170853 23.221334 0.000000 0.000000 0.000000 
30.594051 30.759914 25.511621 0.000000 0.000000 0.000000 
30.589088 30.690025 24.012297 0.000000 0.000000 0.000000 
30.659203 30.757835 26.816399 0.000000 0.000000 0.000000 
41.867485 41.867481 22.807266 0.000000 0.000000 0.000000 
30.734283 30.895538 31.119822 0.000000 0.000000 0.000000 
30.729321 30.825647 29.620497 0.000000 0.000000 0.000000 
30.799435 30.893456 32.424599 0.000000 0.000000 0.000000 
38.136234 46.056179 24.646566 0.000000 0.000000 0.000000 
37.907509 45.827457 22.807266 0.000000 0.000000 0.000000 
35.986923 47.866844 23.284931 0.000000 0.000000 0.000000 
36.325569 48.205490 26.008202 0.000000 0.000000 0.000000 
39.946899 43.906868 23.284931 0.000000 0.000000 0.000000 
40.285545 44.245514 26.008202 0.000000 0.000000 0.000000 
38.026310 45.946255 23.762594 0.000000 0.000000 0.000000 
38.364956 46.284901 26.485865 0.000000 0.000000 0.000000 
38.813530 46.733475 30.093103 0.000000 0.000000 0.000000 
36.664219 48.544140 28.731468 0.000000 0.000000 0.000000 
37.002865 48.882786 31.454739 0.000000 0.000000 0.000000 
40.624195 44.584164 28.731468 0.000000 0.000000 0.000000 
40.962841 44.922810 31.454739 0.000000 0.000000 0.000000 
38.703606 46.623550 29.209133 0.000000 0.000000 0.000000 
39.042252 46.962196 31.932404 0.000000 0.000000 0.000000 
46.056190 38.136223 24.646566 0.000000 0.000000 0.000000 
45.827469 37.907501 22.807266 0.000000 0.000000 0.000000 
43.906879 39.946888 23.284931 0.000000 0.000000 0.000000 
44.245529 40.285538 26.008202 0.000000 0.000000 0.000000 
47.866856 35.986912 23.284931 0.000000 0.000000 0.000000 
48.205505 36.325562 26.008202 0.000000 0.000000 0.000000 
45.946266 38.026299 23.762596 0.000000 0.000000 0.000000 
46.284916 38.364948 26.485867 0.000000 0.000000 0.000000 
46.733486 38.813519 30.093105 0.000000 0.000000 0.000000 
44.584175 40.624184 28.731468 0.000000 0.000000 0.000000 
44.922825 40.962833 31.454739 0.000000 0.000000 0.000000 
48.544151 36.664207 28.731468 0.000000 0.000000 0.000000 
48.882801 37.002857 31.454739 0.000000 0.000000 0.000000 
46.623562 38.703594 29.209133 0.000000 0.000000 0.000000 
46.962212 39.042244 31.932404 0.000000 0.000000 0.000000 
42.215012 42.214996 25.601894 0.000000 0.000000 0.000000 
41.986290 41.986275 23.762596 0.000000 0.000000 0.000000 
42.324940 42.324924 26.485867 0.000000 0.000000 0.000000 
40.065701 44.025661 24.240259 0.000000 0.000000 0.000000 
40.404350 44.364311 26.963530 0.000000 0.000000 0.000000 
44.025677 40.065685 24.240259 0.000000 0.000000 0.000000 
44.364326 40.404335 26.963530 0.000000 0.000000 0.000000 
42.105087 42.105072 24.717924 0.000000 0.000000 0.000000 
42.443737 42.443722 27.441195 0.000000 0.000000 0.000000 
42.892307 42.892292 31.048433 0.000000 0.000000 0.000000 
42.663586 42.663570 29.209133 0.000000 0.000000 0.000000 
43.002235 43.002220 31.932404 0.000000 0.000000 0.000000 
40.742996 44.702957 29.686798 0.000000 0.000000 0.000000 
41.081646 45.041607 32.410069 0.000000 0.000000 0.000000 
44.702972 40.742981 29.686798 0.000000 0.000000 0.000000 
45.041622 41.081631 32.410069 0.000000 0.000000 0.000000 
42.782387 42.782372 30.164461 0.000000 0.000000 0.000000 
43.121033 43.121017 32.887733 0.000000 0.000000 0.000000 
30.874516 31.031158 36.728024 0.000000 0.000000 0.000000 
30.869551 30.961267 35.228703 0.000000 0.000000 0.000000 
30.939667 31.029079 38.032803 0.000000 0.000000 0.000000 
31.014746 31.166779 42.336224 0.000000 0.000000 0.000000 
31.009781 31.096889 40.836899 0.000000 0.000000 0.000000 
31.079899 31.164701 43.640999 0.000000 0.000000 0.000000 
39.490826 47.410770 35.539646 0.000000 0.000000 0.000000 
37.341515 49.221436 34.178009 0.000000 0.000000 0.000000 
37.680161 49.560081 36.901279 0.000000 0.000000 0.000000 
41.301491 45.261459 34.178009 0.000000 0.000000 0.000000 
41.640137 45.600105 36.901279 0.000000 0.000000 0.000000 
39.380901 47.300846 34.655674 0.000000 0.000000 0.000000 
39.719547 47.639492 37.378944 0.000000 0.000000 0.000000 
40.168125 48.088070 40.986179 0.000000 0.000000 0.000000 
38.018810 49.898731 39.624546 0.000000 0.000000 0.000000 
41.978786 45.938755 39.624546 0.000000 0.000000 0.000000 
40.058197 47.978142 40.102207 0.000000 0.000000 0.000000 
40.396847 48.316792 42.825478 0.000000 0.000000 0.000000 
47.410786 39.490818 35.539646 0.000000 0.000000 0.000000 
45.261471 41.301479 34.178013 0.000000 0.000000 0.000000 
45.600121 41.640129 36.901279 0.000000 0.000000 0.000000 
49.221447 37.341503 34.178013 0.000000 0.000000 0.000000 
49.560097 37.680153 36.901279 0.000000 0.000000 0.000000 
47.300858 39.380890 34.655674 0.000000 0.000000 0.000000 
47.639507 39.719540 37.378944 0.000000 0.000000 0.000000 
48.088081 40.168114 40.986179 0.000000 0.000000 0.000000 
45.938766 41.978775 39.624546 0.000000 0.000000 0.000000 
49.898743 38.018799 39.624546 0.000000 0.000000 0.000000 
47.978153 40.058186 40.102211 0.000000 0.000000 0.000000 
48.316803 40.396835 42.825481 0.000000 0.000000 0.000000 
43.569607 43.569592 36.494976 0.000000 0.000000 0.000000 
43.340881 43.340866 34.655674 0.000000 0.000000 0.000000 
43.679531 43.679516 37.378944 0.000000 0.000000 0.000000 
41.420292 45.380253 35.133339 0.000000 0.000000 0.000000 
41.758945 45.718906 37.856609 0.000000 0.000000 0.000000 
45.380268 41.420277 35.133339 0.000000 0.000000 0.000000 
45.718922 41.758930 37.856609 0.000000 0.000000 0.000000 
43.459679 43.459663 35.611004 0.000000 0.000000 0.000000 
43.798332 43.798317 38.334274 0.000000 0.000000 0.000000 
44.246902 44.246887 41.941509 0.000000 0.000000 0.000000 
44.018177 44.018162 40.102211 0.000000 0.000000 0.000000 
44.356827 44.356812 42.825481 0.000000 0.000000 0.000000 
42.097591 46.057552 40.579872 0.000000 0.000000 0.000000 
42.436237 46.396198 43.303143 0.000000 0.000000 0.000000 
46.057568 42.097576 40.579872 0.000000 0.000000 0.000000 
46.396214 42.436222 43.303143 0.000000 0.000000 0.000000 
44.136978 44.136963 41.057537 0.000000 0.000000 0.000000 
44.475624 44.475609 43.780807 0.000000 0.000000 0.000000 
34.295048 50.134953 25.601896 0.000000 0.000000 0.000000 
34.066326 49.906231 23.762596 0.000000 0.000000 0.000000 
34.404976 50.244881 26.485867 0.000000 0.000000 0.000000 
32.807819 51.407269 24.737772 0.000000 0.000000 0.000000 
32.484386 52.284267 26.963531 0.000000 0.000000 0.000000 
36.105713 47.985641 24.240261 0.000000 0.000000 0.000000 
36.444363 48.324291 26.963531 0.000000 0.000000 0.000000 
34.185127 50.025028 24.717924 0.000000 0.000000 0.000000 
34.523773 50.363678 27.441195 0.000000 0.000000 0.000000 
34.972347 50.812252 31.048433 0.000000 0.000000 0.000000 
34.743626 50.583530 29.209133 0.000000 0.000000 0.000000 
35.082272 50.922176 31.932405 0.000000 0.000000 0.000000 
32.823036 52.622917 29.686798 0.000000 0.000000 0.000000 
33.161682 52.961563 32.410069 0.000000 0.000000 0.000000 
36.783012 48.662941 29.686798 0.000000 0.000000 0.000000 
37.121658 49.001587 32.410069 0.000000 0.000000 0.000000 
34.862423 50.702328 30.164463 0.000000 0.000000 0.000000 
35.201069 51.040974 32.887733 0.000000 0.000000 0.000000 
31.922430 53.019623 27.660748 0.000000 0.000000 0.000000 
31.597343 52.440414 25.985590 0.000000 0.000000 0.000000 
31.724697 53.379707 28.313532 0.000000 0.000000 0.000000 
31.131168 54.891026 32.003761 0.000000 0.000000 0.000000 
31.115534 54.489037 30.324587 0.000000 0.000000 0.000000 
31.241093 55.000950 32.887733 0.000000 0.000000 0.000000 
33.280479 53.080360 33.365398 0.000000 0.000000 0.000000 
38.373833 46.293777 26.557224 0.000000 0.000000 0.000000 
38.145111 46.065052 24.717924 0.000000 0.000000 0.000000 
38.483757 46.403702 27.441195 0.000000 0.000000 0.000000 
39.051128 46.971073 32.003761 0.000000 0.000000 0.000000 
38.822407 46.742352 30.164463 0.000000 0.000000 0.000000 
39.161053 47.080997 32.887733 0.000000 0.000000 0.000000 
37.240463 49.120384 33.365398 0.000000 0.000000 0.000000 
41.200439 45.160408 33.365398 0.000000 0.000000 0.000000 
35.209949 51.049847 32.959091 0.000000 0.000000 0.000000 
35.649643 51.489548 36.494976 0.000000 0.000000 0.000000 
35.420921 51.260826 34.655674 0.000000 0.000000 0.000000 
35.759567 51.599472 37.378948 0.000000 0.000000 0.000000 
33.500332 53.300213 35.133339 0.000000 0.000000 0.000000 
33.838978 53.638859 37.856609 0.000000 0.000000 0.000000 
37.460308 49.340237 35.133339 0.000000 0.000000 0.000000 
37.798954 49.678883 37.856609 0.000000 0.000000 0.000000 
35.539719 51.379623 35.611004 0.000000 0.000000 0.000000 
35.878365 51.718269 38.334274 0.000000 0.000000 0.000000 
36.326942 52.166847 41.941509 0.000000 0.000000 0.000000 
36.098217 51.938122 40.102211 0.000000 0.000000 0.000000 
36.436863 52.276768 42.825481 0.000000 0.000000 0.000000 
34.177628 53.977509 40.579876 0.000000 0.000000 0.000000 
34.516273 54.316158 43.303146 0.000000 0.000000 0.000000 
38.137604 50.017532 40.579876 0.000000 0.000000 0.000000 
38.476250 50.356182 43.303146 0.000000 0.000000 0.000000 
36.217014 52.056919 41.057537 0.000000 0.000000 0.000000 
36.555664 52.395569 43.780807 0.000000 0.000000 0.000000 
31.808466 55.568321 37.450302 0.000000 0.000000 0.000000 
31.579742 55.339600 35.611004 0.000000 0.000000 0.000000 
31.918388 55.678246 38.334274 0.000000 0.000000 0.000000 
29.659155 57.378986 36.088669 0.000000 0.000000 0.000000 
29.997801 57.717632 38.811939 0.000000 0.000000 0.000000 
33.619129 53.419010 36.088669 0.000000 0.000000 0.000000 
33.957775 53.757656 38.811939 0.000000 0.000000 0.000000 
32.485764 56.245621 42.896839 0.000000 0.000000 0.000000 
32.257038 56.016895 41.057537 0.000000 0.000000 0.000000 
32.595688 56.355545 43.780807 0.000000 0.000000 0.000000 
30.336449 58.056282 41.535202 0.000000 0.000000 0.000000 
30.675097 58.394932 44.258472 0.000000 0.000000 0.000000 
34.296425 54.096306 41.535202 0.000000 0.000000 0.000000 
34.635075 54.434956 44.258472 0.000000 0.000000 0.000000 
39.728424 47.648369 37.450302 0.000000 0.000000 0.000000 
39.499702 47.419647 35.611004 0.000000 0.000000 0.000000 
39.838348 47.758293 38.334274 0.000000 0.000000 0.000000 
37.579113 49.459034 36.088669 0.000000 0.000000 0.000000 
37.917759 49.797680 38.811939 0.000000 0.000000 0.000000 
41.539089 45.499058 36.088669 0.000000 0.000000 0.000000 
41.877735 45.837704 38.811939 0.000000 0.000000 0.000000 
40.405724 48.325668 42.896839 0.000000 0.000000 0.000000 
40.176998 48.096943 41.057537 0.000000 0.000000 0.000000 
40.515648 48.435593 43.780807 0.000000 0.000000 0.000000 
38.256409 50.136330 41.535202 0.000000 0.000000 0.000000 
38.595058 50.474979 44.258472 0.000000 0.000000 0.000000 
42.216385 46.176353 41.535202 0.000000 0.000000 0.000000 
42.555035 46.515003 44.258472 0.000000 0.000000 0.000000 
35.887249 51.727142 38.405632 0.000000 0.000000 0.000000 
36.564545 52.404442 43.852165 0.000000 0.000000 0.000000 
50.134968 34.295048 25.601894 0.000000 0.000000 0.000000 
49.906239 34.066319 23.762596 0.000000 0.000000 0.000000 
50.244888 34.404968 26.485867 0.000000 0.000000 0.000000 
47.985649 36.105705 24.240261 0.000000 0.000000 0.000000 
48.324299 36.444355 26.963531 0.000000 0.000000 0.000000 
51.407280 32.807808 24.737766 0.000000 0.000000 0.000000 
52.284279 32.484383 26.963530 0.000000 0.000000 0.000000 
50.025043 34.185123 24.717922 0.000000 0.000000 0.000000 
50.363693 34.523773 27.441195 0.000000 0.000000 0.000000 
50.812263 34.972343 31.048431 0.000000 0.000000 0.000000 
50.583538 34.743618 29.209133 0.000000 0.000000 0.000000 
50.922184 35.082264 31.932405 0.000000 0.000000 0.000000 
48.662949 36.783005 29.686798 0.000000 0.000000 0.000000 
49.001595 37.121651 32.410069 0.000000 0.000000 0.000000 
52.622929 32.823032 29.686796 0.000000 0.000000 0.000000 
52.961575 33.161678 32.410069 0.000000 0.000000 0.000000 
50.702339 34.862419 30.164461 0.000000 0.000000 0.000000 
51.040985 35.201065 32.887733 0.000000 0.000000 0.000000 
46.293789 38.373821 26.557222 0.000000 0.000000 0.000000 
46.065063 38.145092 24.717924 0.000000 0.000000 0.000000 
46.403709 38.483742 27.441195 0.000000 0.000000 0.000000 
46.971085 39.051117 32.003761 0.000000 0.000000 0.000000 
46.742359 38.822392 30.164463 0.000000 0.000000 0.000000 
47.081005 39.161037 32.887733 0.000000 0.000000 0.000000 
45.160416 41.200424 33.365398 0.000000 0.000000 0.000000 
49.120396 37.240452 33.365398 0.000000 0.000000 0.000000 
53.019638 31.922417 27.660748 0.000000 0.000000 0.000000 
52.440426 31.597334 25.985590 0.000000 0.000000 0.000000 
53.379723 31.724684 28.313532 0.000000 0.000000 0.000000 
54.891041 31.131161 32.003761 0.000000 0.000000 0.000000 
54.489044 31.115524 30.324583 0.000000 0.000000 0.000000 
55.000965 31.241085 32.887733 0.000000 0.000000 0.000000 
53.080376 33.280472 33.365398 0.000000 0.000000 0.000000 
51.049862 35.209934 32.959091 0.000000 0.000000 0.000000 
51.489563 35.649643 36.494972 0.000000 0.000000 0.000000 
51.260834 35.420914 34.655674 0.000000 0.000000 0.000000 
51.599480 35.759560 37.378948 0.000000 0.000000 0.000000 
49.340244 37.460300 35.133339 0.000000 0.000000 0.000000 
49.678890 37.798946 37.856609 0.000000 0.000000 0.000000 
53.300228 33.500332 35.133339 0.000000 0.000000 0.000000 
53.638874 33.838978 37.856609 0.000000 0.000000 0.000000 
51.379639 35.539719 35.611004 0.000000 0.000000 0.000000 
51.718285 35.878365 38.334274 0.000000 0.000000 0.000000 
52.166859 36.326939 41.941509 0.000000 0.000000 0.000000 
51.938129 36.098209 40.102211 0.000000 0.000000 0.000000 
52.276775 36.436855 42.825481 0.000000 0.000000 0.000000 
50.017540 38.137596 40.579876 0.000000 0.000000 0.000000 
50.356186 38.476246 43.303146 0.000000 0.000000 0.000000 
53.977520 34.177624 40.579872 0.000000 0.000000 0.000000 
54.316170 34.516273 43.303143 0.000000 0.000000 0.000000 
52.056931 36.217010 41.057537 0.000000 0.000000 0.000000 
52.395580 36.555660 43.780807 0.000000 0.000000 0.000000 
47.648384 39.728416 37.450302 0.000000 0.000000 0.000000 
47.419655 39.499687 35.611004 0.000000 0.000000 0.000000 
47.758301 39.838333 38.334274 0.000000 0.000000 0.000000 
45.499065 41.539074 36.088669 0.000000 0.000000 0.000000 
45.837711 41.877720 38.811939 0.000000 0.000000 0.000000 
49.459049 37.579105 36.088665 0.000000 0.000000 0.000000 
49.797695 37.917751 38.811939 0.000000 0.000000 0.000000 
48.325680 40.405712 42.896835 0.000000 0.000000 0.000000 
48.096951 40.176983 41.057537 0.000000 0.000000 0.000000 
48.435600 40.515633 43.780807 0.000000 0.000000 0.000000 
46.176361 42.216370 41.535202 0.000000 0.000000 0.000000 
46.515011 42.555019 44.258472 0.000000 0.000000 0.000000 
50.136341 38.256397 41.535202 0.000000 0.000000 0.000000 
50.474991 38.595047 44.258472 0.000000 0.000000 0.000000 
55.568336 31.808456 37.450302 0.000000 0.000000 0.000000 
55.339615 31.579735 35.611004 0.000000 0.000000 0.000000 
55.678261 31.918381 38.334274 0.000000 0.000000 0.000000 
53.419025 33.619122 36.088669 0.000000 0.000000 0.000000 
53.757671 33.957767 38.811939 0.000000 0.000000 0.000000 
57.379002 29.659145 36.088669 0.000000 0.000000 0.000000 
57.717648 29.997791 38.811939 0.000000 0.000000 0.000000 
56.245636 32.485756 42.896839 0.000000 0.000000 0.000000 
56.016911 32.257030 41.057537 0.000000 0.000000 0.000000 
56.355560 32.595680 43.780807 0.000000 0.000000 0.000000 
54.096321 34.296417 41.535202 0.000000 0.000000 0.000000 
54.434971 34.635067 44.258472 0.000000 0.000000 0.000000 
58.056297 30.336441 41.535202 0.000000 0.000000 0.000000 
58.394947 30.675089 44.258472 0.000000 0.000000 0.000000 
51.727161 35.887230 38.405632 0.000000 0.000000 0.000000 
52.404457 36.564529 43.852165 0.000000 0.000000 0.000000 
43.129902 43.129894 32.959091 0.000000 0.000000 0.000000 
43.807201 43.807190 38.405632 0.000000 0.000000 0.000000 
44.484497 44.484489 43.852165 0.000000 0.000000 0.000000 
26.085976 35.680008 47.365074 0.000000 0.000000 0.000000 
26.210125 35.837219 52.972908 0.000000 0.000000 0.000000 
35.834412 25.778757 47.375526 0.000000 0.000000 0.000000 
35.992027 25.894890 52.983681 0.000000 0.000000 0.000000 
31.275352 31.158464 47.555336 0.000000 0.000000 0.000000 
28.814516 33.416439 46.156429 0.000000 0.000000 0.000000 
28.876478 33.491337 48.960556 0.000000 0.000000 0.000000 
33.227394 29.052458 46.155258 0.000000 0.000000 0.000000 
33.298523 29.119251 48.959358 0.000000 0.000000 0.000000 
31.210201 31.160543 46.250557 0.000000 0.000000 0.000000 
31.280317 31.228355 49.054657 0.000000 0.000000 0.000000 
31.468605 31.240166 53.159130 0.000000 0.000000 0.000000 
28.938444 33.566242 51.764679 0.000000 0.000000 0.000000 
29.000408 33.641144 54.568806 0.000000 0.000000 0.000000 
33.369656 29.186049 51.763454 0.000000 0.000000 0.000000 
33.440784 29.252844 54.567554 0.000000 0.000000 0.000000 
31.374571 31.272514 51.856770 0.000000 0.000000 0.000000 
31.447407 31.340912 54.660706 0.000000 0.000000 0.000000 
26.334274 35.994431 58.580734 0.000000 0.000000 0.000000 
25.554585 36.787777 64.206284 0.000000 0.000000 0.000000 
36.149647 26.011024 58.591827 0.000000 0.000000 0.000000 
36.307262 26.127157 64.199982 0.000000 0.000000 0.000000 
31.614279 31.376965 58.766991 0.000000 0.000000 0.000000 
29.062370 33.716042 57.372921 0.000000 0.000000 0.000000 
29.124336 33.790947 60.177048 0.000000 0.000000 0.000000 
33.511917 29.319641 57.371647 0.000000 0.000000 0.000000 
33.583046 29.386435 60.175747 0.000000 0.000000 0.000000 
31.520243 31.409309 57.464630 0.000000 0.000000 0.000000 
31.593081 31.477709 60.268566 0.000000 0.000000 0.000000 
31.759953 31.513762 64.374863 0.000000 0.000000 0.000000 
29.186300 33.865845 62.981174 0.000000 0.000000 0.000000 
29.248264 33.940746 65.785301 0.000000 0.000000 0.000000 
33.654175 29.453232 62.979847 0.000000 0.000000 0.000000 
33.725304 29.520025 65.783951 0.000000 0.000000 0.000000 
31.665916 31.546106 63.072502 0.000000 0.000000 0.000000 
31.738752 31.614502 65.876434 0.000000 0.000000 0.000000 
25.657017 36.949184 69.814758 0.000000 0.000000 0.000000 
25.759449 37.110592 75.423233 0.000000 0.000000 0.000000 
36.464882 26.243290 69.808144 0.000000 0.000000 0.000000 
36.653488 26.317188 75.413437 0.000000 0.000000 0.000000 
31.905626 31.650558 69.982727 0.000000 0.000000 0.000000 
29.310228 34.015652 68.589424 0.000000 0.000000 0.000000 
29.372192 34.090553 71.393547 0.000000 0.000000 0.000000 
33.796436 29.586823 68.588043 0.000000 0.000000 0.000000 
33.867565 29.653618 71.392143 0.000000 0.000000 0.000000 
31.811590 31.682903 68.680367 0.000000 0.000000 0.000000 
31.884426 31.751301 71.484306 0.000000 0.000000 0.000000 
32.051296 31.787354 75.590599 0.000000 0.000000 0.000000 
29.434156 34.165451 74.197670 0.000000 0.000000 0.000000 
29.496120 34.240356 77.001801 0.000000 0.000000 0.000000 
33.938694 29.720413 74.196243 0.000000 0.000000 0.000000 
34.009823 29.787209 77.000343 0.000000 0.000000 0.000000 
31.957264 31.819700 74.288239 0.000000 0.000000 0.000000 
32.030098 31.888098 77.092171 0.000000 0.000000 0.000000 
25.861881 37.271999 81.031693 0.000000 0.000000 0.000000 
25.964314 37.433407 86.640167 0.000000 0.000000 0.000000 
36.826172 26.415998 81.020264 0.000000 0.000000 0.000000 
36.986210 26.532272 86.628273 0.000000 0.000000 0.000000 
32.196972 31.924150 81.198456 0.000000 0.000000 0.000000 
29.558084 34.315254 79.805908 0.000000 0.000000 0.000000 
29.620049 34.390156 82.610031 0.000000 0.000000 0.000000 
34.080952 29.854002 79.804428 0.000000 0.000000 0.000000 
34.152084 29.920799 82.608528 0.000000 0.000000 0.000000 
32.102936 31.956495 79.896095 0.000000 0.000000 0.000000 
32.175774 32.024895 82.700027 0.000000 0.000000 0.000000 
32.342644 32.060947 86.806320 0.000000 0.000000 0.000000 
29.682014 34.465061 85.414162 0.000000 0.000000 0.000000 
34.223213 29.987597 85.412628 0.000000 0.000000 0.000000 
32.248608 32.093292 85.503960 0.000000 0.000000 0.000000 
32.284325 32.126831 86.878891 0.000000 0.000000 0.000000 
5.510865 43.769783 47.412937 0.000000 0.000000 0.000000 
6.738218 43.555286 46.120312 0.000000 0.000000 0.000000 
6.750908 43.649647 48.924576 0.000000 0.000000 0.000000 
5.550783 43.979034 53.019833 0.000000 0.000000 0.000000 
6.763598 43.744007 51.728836 0.000000 0.000000 0.000000 
3.990239 44.040680 47.711128 0.000000 0.000000 0.000000 
2.063898 44.089516 46.238914 0.000000 0.000000 0.000000 
2.067060 44.184090 49.043217 0.000000 0.000000 0.000000 
1.931808 44.098434 46.372307 0.000000 0.000000 0.000000 
1.934970 44.193008 49.176609 0.000000 0.000000 0.000000 
6.215717 43.630119 46.253407 0.000000 0.000000 0.000000 
6.228407 43.724480 49.057671 0.000000 0.000000 0.000000 
5.693216 43.704948 46.386501 0.000000 0.000000 0.000000 
5.611827 43.819557 49.197678 0.000000 0.000000 0.000000 
4.002128 44.229649 53.319725 0.000000 0.000000 0.000000 
2.070221 44.278660 51.847519 0.000000 0.000000 0.000000 
2.073383 44.373234 54.651821 0.000000 0.000000 0.000000 
1.938131 44.287579 51.980911 0.000000 0.000000 0.000000 
1.941293 44.382153 54.785213 0.000000 0.000000 0.000000 
6.241097 43.818836 51.861931 0.000000 0.000000 0.000000 
6.253788 43.913197 54.666195 0.000000 0.000000 0.000000 
5.631786 43.924183 52.001125 0.000000 0.000000 0.000000 
5.651744 44.028809 54.804573 0.000000 0.000000 0.000000 
13.625312 42.011433 47.501808 0.000000 0.000000 0.000000 
11.266785 42.609535 46.146984 0.000000 0.000000 0.000000 
11.393095 42.673954 48.943737 0.000000 0.000000 0.000000 
15.123390 41.508335 46.185352 0.000000 0.000000 0.000000 
15.152700 41.598545 48.989635 0.000000 0.000000 0.000000 
13.675909 42.196136 53.110260 0.000000 0.000000 0.000000 
11.560247 42.729645 51.737438 0.000000 0.000000 0.000000 
11.592690 42.829494 54.541000 0.000000 0.000000 0.000000 
15.182012 41.688751 51.793922 0.000000 0.000000 0.000000 
15.211323 41.778965 54.598209 0.000000 0.000000 0.000000 
11.609590 42.572823 47.762337 0.000000 0.000000 0.000000 
10.333181 42.913113 46.271145 0.000000 0.000000 0.000000 
10.365624 43.012962 49.074711 0.000000 0.000000 0.000000 
9.443112 43.144905 46.406563 0.000000 0.000000 0.000000 
9.460983 43.238586 49.210812 0.000000 0.000000 0.000000 
13.942819 41.882370 46.312931 0.000000 0.000000 0.000000 
13.968117 41.974720 49.117157 0.000000 0.000000 0.000000 
12.934958 42.163063 46.443195 0.000000 0.000000 0.000000 
12.960257 42.255413 49.247421 0.000000 0.000000 0.000000 
11.624378 42.773220 53.373356 0.000000 0.000000 0.000000 
10.398067 43.112808 51.878273 0.000000 0.000000 0.000000 
10.430511 43.212658 54.681835 0.000000 0.000000 0.000000 
9.478854 43.332268 52.015064 0.000000 0.000000 0.000000 
9.496724 43.425949 54.819317 0.000000 0.000000 0.000000 
13.993415 42.067078 51.921383 0.000000 0.000000 0.000000 
14.018713 42.159428 54.725609 0.000000 0.000000 0.000000 
12.985555 42.347771 52.051647 0.000000 0.000000 0.000000 
13.010853 42.440121 54.855873 0.000000 0.000000 0.000000 
5.590700 44.188290 58.626720 0.000000 0.000000 0.000000 
5.630617 44.397545 64.233620 0.000000 0.000000 0.000000 
4.014016 44.418610 58.928314 0.000000 0.000000 0.000000 
2.076545 44.467808 57.456116 0.000000 0.000000 0.000000 
2.079707 44.562378 60.260418 0.000000 0.000000 0.000000 
1.944455 44.476727 57.589508 0.000000 0.000000 0.000000 
1.947616 44.571297 60.393810 0.000000 0.000000 0.000000 
6.391832 43.990376 57.461010 0.000000 0.000000 0.000000 
6.419496 44.093510 60.263885 0.000000 0.000000 0.000000 
5.671703 44.133434 57.608013 0.000000 0.000000 0.000000 
5.691662 44.238064 60.411461 0.000000 0.000000 0.000000 
4.025905 44.607578 64.536911 0.000000 0.000000 0.000000 
2.082869 44.656952 63.064720 0.000000 0.000000 0.000000 
2.090976 44.751354 65.868835 0.000000 0.000000 0.000000 
1.925182 44.668549 63.199032 0.000000 0.000000 0.000000 
1.931318 44.766083 66.003120 0.000000 0.000000 0.000000 
6.439455 44.198139 63.067333 0.000000 0.000000 0.000000 
6.459414 44.302765 65.870781 0.000000 0.000000 0.000000 
5.711621 44.342690 63.214909 0.000000 0.000000 0.000000 
5.731579 44.447315 66.018356 0.000000 0.000000 0.000000 
13.726504 42.380844 58.718700 0.000000 0.000000 0.000000 
11.625133 42.929340 57.344555 0.000000 0.000000 0.000000 
11.657576 43.029190 60.148121 0.000000 0.000000 0.000000 
15.240634 41.869175 57.402489 0.000000 0.000000 0.000000 
15.269944 41.959385 60.206776 0.000000 0.000000 0.000000 
13.777102 42.565552 64.327156 0.000000 0.000000 0.000000 
11.690019 43.129040 62.951683 0.000000 0.000000 0.000000 
11.722462 43.228886 65.755249 0.000000 0.000000 0.000000 
15.299256 42.049599 63.011063 0.000000 0.000000 0.000000 
15.328568 42.139809 65.815353 0.000000 0.000000 0.000000 
11.689263 42.972916 58.980473 0.000000 0.000000 0.000000 
10.462954 43.312508 57.485394 0.000000 0.000000 0.000000 
10.225630 43.476555 60.296967 0.000000 0.000000 0.000000 
9.514595 43.519630 57.623562 0.000000 0.000000 0.000000 
9.532465 43.613308 60.427811 0.000000 0.000000 0.000000 
14.044010 42.251781 57.529827 0.000000 0.000000 0.000000 
14.069309 42.344135 60.334053 0.000000 0.000000 0.000000 
13.036151 42.532475 57.660091 0.000000 0.000000 0.000000 
13.061450 42.624828 60.464317 0.000000 0.000000 0.000000 
11.754149 43.172615 64.587601 0.000000 0.000000 0.000000 
10.278374 43.563541 63.099926 0.000000 0.000000 0.000000 
10.296244 43.657219 65.904175 0.000000 0.000000 0.000000 
9.550336 43.706993 63.232063 0.000000 0.000000 0.000000 
9.568207 43.800674 66.036316 0.000000 0.000000 0.000000 
14.094606 42.436489 63.138279 0.000000 0.000000 0.000000 
14.119905 42.528835 65.942505 0.000000 0.000000 0.000000 
13.086747 42.717182 63.268543 0.000000 0.000000 0.000000 
13.112045 42.809532 66.072769 0.000000 0.000000 0.000000 
3.494496 44.080887 47.977665 0.000000 0.000000 0.000000 
1.799717 44.107357 46.505703 0.000000 0.000000 0.000000 
1.802879 44.201931 49.310005 0.000000 0.000000 0.000000 
4.864033 43.859482 46.541805 0.000000 0.000000 0.000000 
4.883992 43.964108 49.345253 0.000000 0.000000 0.000000 
3.506385 44.269855 53.586262 0.000000 0.000000 0.000000 
1.806041 44.296501 52.114307 0.000000 0.000000 0.000000 
1.809202 44.391075 54.918610 0.000000 0.000000 0.000000 
4.903951 44.068733 52.148701 0.000000 0.000000 0.000000 
4.923909 44.173363 54.952148 0.000000 0.000000 0.000000 
3.959982 63.015396 48.363266 0.000000 0.000000 0.000000 
1.979993 63.167435 45.312832 0.000000 0.000000 0.000000 
1.979993 62.716537 50.062660 0.000000 0.000000 0.000000 
1.979993 63.286236 45.988350 0.000000 0.000000 0.000000 
1.979993 62.835335 49.387142 0.000000 0.000000 0.000000 
5.939971 63.167435 45.312832 0.000000 0.000000 0.000000 
5.939971 62.716537 50.062660 0.000000 0.000000 0.000000 
5.939971 63.286236 45.988350 0.000000 0.000000 0.000000 
5.939971 62.835335 49.387142 0.000000 0.000000 0.000000 
3.959982 62.057556 53.809807 0.000000 0.000000 0.000000 
1.979993 62.237617 52.785931 0.000000 0.000000 0.000000 
1.979993 61.758701 55.509201 0.000000 0.000000 0.000000 
1.979993 62.356419 52.110413 0.000000 0.000000 0.000000 
1.979993 61.877499 54.833683 0.000000 0.000000 0.000000 
5.939971 62.237617 52.785931 0.000000 0.000000 0.000000 
5.939971 61.758701 55.509201 0.000000 0.000000 0.000000 
