-17.812500 -17.812500 0.000000 0.000000 0.000000 0.000000 
-17.812500 -15.937500 0.000000 0.000000 0.000000 0.000000 
-15.937500 -17.812500 0.000000 0.000000 0.000000 0.000000 
-15.937500 -15.937500 0.000000 0.000000 0.000000 0.000000 
-16.875000 -16.875000 0.000000 0.000000 0.000000 0.000000 
-20.625000 -20.625000 0.000000 0.000000 0.000000 0.000000 
-20.625000 -20.625000 0.000000 0.000000 0.000000 0.000000 
-20.625000 -16.875000 0.000000 0.000000 0.000000 0.000000 
-20.625000 -16.875000 0.000000 0.000000 0.000000 0.000000 
-16.875000 -20.625000 0.000000 0.000000 0.000000 0.000000 
-16.875000 -20.625000 0.000000 0.000000 0.000000 0.000000 
-16.875000 -16.875000 0.000000 0.000000 0.000000 0.000000 
-16.875000 -16.875000 0.000000 0.000000 0.000000 0.000000 
-28.125000 -30.000000 3.906250 0.000000 0.000000 0.000000 
-29.062500 -30.000000 3.828125 0.000000 0.000000 0.000000 
-29.062500 -30.000000 3.984375 0.000000 0.000000 0.000000 
-30.000000 -27.187500 3.828125 0.000000 0.000000 0.000000 
-30.000000 -27.187500 3.984375 0.000000 0.000000 0.000000 
-27.187500 -30.000000 3.828125 0.000000 0.000000 0.000000 
-27.187500 -30.000000 3.984375 0.000000 0.000000 0.000000 
-28.125000 -30.000000 4.218750 0.000000 0.000000 0.000000 
-29.062500 -30.000000 4.140625 0.000000 0.000000 0.000000 
-29.062500 -30.000000 4.296875 0.000000 0.000000 0.000000 
-30.000000 -27.187500 4.140625 0.000000 0.000000 0.000000 
-30.000000 -27.187500 4.296875 0.000000 0.000000 0.000000 
-27.187500 -30.000000 4.140625 0.000000 0.000000 0.000000 
-27.187500 -30.000000 4.296875 0.000000 0.000000 0.000000 
-30.000000 -24.375000 3.906250 0.000000 0.000000 0.000000 
-30.000000 -25.312500 3.828125 0.000000 0.000000 0.000000 
-30.000000 -25.312500 3.984375 0.000000 0.000000 0.000000 
-30.000000 -23.437500 3.828125 0.000000 0.000000 0.000000 
-30.000000 -23.437500 3.984375 0.000000 0.000000 0.000000 
-30.000000 -24.375000 4.218750 0.000000 0.000000 0.000000 
-30.000000 -25.312500 4.140625 0.000000 0.000000 0.000000 
-30.000000 -25.312500 4.296875 0.000000 0.000000 0.000000 
-30.000000 -23.437500 4.140625 0.000000 0.000000 0.000000 
-30.000000 -23.437500 4.296875 0.000000 0.000000 0.000000 
-24.375000 -30.000000 3.906250 0.000000 0.000000 0.000000 
-25.312500 -30.000000 3.828125 0.000000 0.000000 0.000000 
-25.312500 -30.000000 3.984375 0.000000 0.000000 0.000000 
-23.437500 -30.000000 3.828125 0.000000 0.000000 0.000000 
-23.437500 -30.000000 3.984375 0.000000 0.000000 0.000000 
-24.375000 -30.000000 4.218750 0.000000 0.000000 0.000000 
-25.312500 -30.000000 4.140625 0.000000 0.000000 0.000000 
-25.312500 -30.000000 4.296875 0.000000 0.000000 0.000000 
-23.437500 -30.000000 4.140625 0.000000 0.000000 0.000000 
-23.437500 -30.000000 4.296875 0.000000 0.000000 0.000000 
-24.375000 -24.375000 0.000000 0.000000 0.000000 0.000000 
-24.375000 -24.375000 0.000000 0.000000 0.000000 0.000000 
-28.125000 -30.000000 4.531250 0.000000 0.000000 0.000000 
-29.062500 -30.000000 4.453125 0.000000 0.000000 0.000000 
-29.062500 -30.000000 4.609375 0.000000 0.000000 0.000000 
-30.000000 -27.187500 4.453125 0.000000 0.000000 0.000000 
-30.000000 -27.187500 4.609375 0.000000 0.000000 0.000000 
-27.187500 -30.000000 4.453125 0.000000 0.000000 0.000000 
-27.187500 -30.000000 4.609375 0.000000 0.000000 0.000000 
-30.000000 -28.125000 4.843750 0.000000 0.000000 0.000000 
-29.062500 -30.000000 4.765625 0.000000 0.000000 0.000000 
-30.000000 -29.062500 4.921875 0.000000 0.000000 0.000000 
-30.000000 -27.187500 4.765625 0.000000 0.000000 0.000000 
-30.000000 -27.187500 4.921875 0.000000 0.000000 0.000000 
-27.187500 -30.000000 4.765625 0.000000 0.000000 0.000000 
-27.187500 -30.000000 4.921875 0.000000 0.000000 0.000000 
-30.000000 -24.375000 4.531250 0.000000 0.000000 0.000000 
-30.000000 -25.312500 4.453125 0.000000 0.000000 0.000000 
-30.000000 -25.312500 4.609375 0.000000 0.000000 0.000000 
-30.000000 -23.437500 4.453125 0.000000 0.000000 0.000000 
-30.000000 -23.437500 4.609375 0.000000 0.000000 0.000000 
-30.000000 -24.375000 4.843750 0.000000 0.000000 0.000000 
-30.000000 -25.312500 4.765625 0.000000 0.000000 0.000000 
-30.000000 -25.312500 4.921875 0.000000 0.000000 0.000000 
-30.000000 -23.437500 4.765625 0.000000 0.000000 0.000000 
-30.000000 -23.437500 4.921875 0.000000 0.000000 0.000000 
-24.375000 -30.000000 4.531250 0.000000 0.000000 0.000000 
-25.312500 -30.000000 4.453125 0.000000 0.000000 0.000000 
-25.312500 -30.000000 4.609375 0.000000 0.000000 0.000000 
-23.437500 -30.000000 4.453125 0.000000 0.000000 0.000000 
-23.437500 -30.000000 4.609375 0.000000 0.000000 0.000000 
-24.375000 -30.000000 4.843750 0.000000 0.000000 0.000000 
-25.312500 -30.000000 4.765625 0.000000 0.000000 0.000000 
-25.312500 -30.000000 4.921875 0.000000 0.000000 0.000000 
-23.437500 -30.000000 4.765625 0.000000 0.000000 0.000000 
-23.437500 -30.000000 4.921875 0.000000 0.000000 0.000000 
-24.375000 -24.375000 0.000000 0.000000 0.000000 0.000000 
-24.375000 -24.375000 0.000000 0.000000 0.000000 0.000000 
-30.000000 -20.625000 3.906250 0.000000 0.000000 0.000000 
-30.000000 -21.562500 3.828125 0.000000 0.000000 0.000000 
-30.000000 -21.562500 3.984375 0.000000 0.000000 0.000000 
-30.000000 -19.687500 3.828125 0.000000 0.000000 0.000000 
-30.000000 -19.687500 3.984375 0.000000 0.000000 0.000000 
-30.000000 -20.625000 4.218750 0.000000 0.000000 0.000000 
-30.000000 -21.562500 4.140625 0.000000 0.000000 0.000000 
-30.000000 -21.562500 4.296875 0.000000 0.000000 0.000000 
-30.000000 -19.687500 4.140625 0.000000 0.000000 0.000000 
-30.000000 -19.687500 4.296875 0.000000 0.000000 0.000000 
-30.000000 -16.875000 3.906250 0.000000 0.000000 0.000000 
-30.000000 -17.812500 3.828125 0.000000 0.000000 0.000000 
-30.000000 -17.812500 3.984375 0.000000 0.000000 0.000000 
-30.000000 -15.937500 3.828125 0.000000 0.000000 0.000000 
-30.000000 -15.937500 3.984375 0.000000 0.000000 0.000000 
-30.000000 -16.875000 4.218750 0.000000 0.000000 0.000000 
-30.000000 -17.812500 4.140625 0.000000 0.000000 0.000000 
-30.000000 -17.812500 4.296875 0.000000 0.000000 0.000000 
-30.000000 -15.937500 4.140625 0.000000 0.000000 0.000000 
-30.000000 -15.937500 4.296875 0.000000 0.000000 0.000000 
-24.375000 -20.625000 0.000000 0.000000 0.000000 0.000000 
-24.375000 -20.625000 0.000000 0.000000 0.000000 0.000000 
-24.375000 -16.875000 0.000000 0.000000 0.000000 0.000000 
-24.375000 -16.875000 0.000000 0.000000 0.000000 0.000000 
-30.000000 -20.625000 4.531250 0.000000 0.000000 0.000000 
-30.000000 -21.562500 4.453125 0.000000 0.000000 0.000000 
-30.000000 -21.562500 4.609375 0.000000 0.000000 0.000000 
-30.000000 -19.687500 4.453125 0.000000 0.000000 0.000000 
-30.000000 -19.687500 4.609375 0.000000 0.000000 0.000000 
-30.000000 -20.625000 4.843750 0.000000 0.000000 0.000000 
-30.000000 -21.562500 4.765625 0.000000 0.000000 0.000000 
-30.000000 -21.562500 4.921875 0.000000 0.000000 0.000000 
-30.000000 -19.687500 4.765625 0.000000 0.000000 0.000000 
-30.000000 -19.687500 4.921875 0.000000 0.000000 0.000000 
-30.000000 -16.875000 4.531250 0.000000 0.000000 0.000000 
-30.000000 -17.812500 4.453125 0.000000 0.000000 0.000000 
-30.000000 -17.812500 4.609375 0.000000 0.000000 0.000000 
-30.000000 -15.937500 4.453125 0.000000 0.000000 0.000000 
-30.000000 -15.937500 4.609375 0.000000 0.000000 0.000000 
-30.000000 -16.875000 4.843750 0.000000 0.000000 0.000000 
-30.000000 -17.812500 4.765625 0.000000 0.000000 0.000000 
-30.000000 -17.812500 4.921875 0.000000 0.000000 0.000000 
-30.000000 -15.937500 4.765625 0.000000 0.000000 0.000000 
-30.000000 -15.937500 4.921875 0.000000 0.000000 0.000000 
-24.375000 -20.625000 0.000000 0.000000 0.000000 0.000000 
-24.375000 -20.625000 0.000000 0.000000 0.000000 0.000000 
-24.375000 -16.875000 0.000000 0.000000 0.000000 0.000000 
-24.375000 -16.875000 0.000000 0.000000 0.000000 0.000000 
-20.625000 -30.000000 3.906250 0.000000 0.000000 0.000000 
-21.562500 -30.000000 3.828125 0.000000 0.000000 0.000000 
-21.562500 -30.000000 3.984375 0.000000 0.000000 0.000000 
-19.687500 -30.000000 3.828125 0.000000 0.000000 0.000000 
-19.687500 -30.000000 3.984375 0.000000 0.000000 0.000000 
-20.625000 -30.000000 4.218750 0.000000 0.000000 0.000000 
-21.562500 -30.000000 4.140625 0.000000 0.000000 0.000000 
-21.562500 -30.000000 4.296875 0.000000 0.000000 0.000000 
-19.687500 -30.000000 4.140625 0.000000 0.000000 0.000000 
-19.687500 -30.000000 4.296875 0.000000 0.000000 0.000000 
-20.625000 -24.375000 0.000000 0.000000 0.000000 0.000000 
-20.625000 -24.375000 0.000000 0.000000 0.000000 0.000000 
-16.875000 -30.000000 3.906250 0.000000 0.000000 0.000000 
-17.812500 -30.000000 3.828125 0.000000 0.000000 0.000000 
-17.812500 -30.000000 3.984375 0.000000 0.000000 0.000000 
-15.937500 -30.000000 3.828125 0.000000 0.000000 0.000000 
-15.937500 -30.000000 3.984375 0.000000 0.000000 0.000000 
-16.875000 -30.000000 4.218750 0.000000 0.000000 0.000000 
-17.812500 -30.000000 4.140625 0.000000 0.000000 0.000000 
-17.812500 -30.000000 4.296875 0.000000 0.000000 0.000000 
-15.937500 -30.000000 4.140625 0.000000 0.000000 0.000000 
-15.937500 -30.000000 4.296875 0.000000 0.000000 0.000000 
-16.875000 -24.375000 0.000000 0.000000 0.000000 0.000000 
-16.875000 -24.375000 0.000000 0.000000 0.000000 0.000000 
-20.625000 -30.000000 4.531250 0.000000 0.000000 0.000000 
-21.562500 -30.000000 4.453125 0.000000 0.000000 0.000000 
-21.562500 -30.000000 4.609375 0.000000 0.000000 0.000000 
-19.687500 -30.000000 4.453125 0.000000 0.000000 0.000000 
-19.687500 -30.000000 4.609375 0.000000 0.000000 0.000000 
-20.625000 -30.000000 4.843750 0.000000 0.000000 0.000000 
-21.562500 -30.000000 4.765625 0.000000 0.000000 0.000000 
-21.562500 -30.000000 4.921875 0.000000 0.000000 0.000000 
-19.687500 -30.000000 4.765625 0.000000 0.000000 0.000000 
-19.687500 -30.000000 4.921875 0.000000 0.000000 0.000000 
-20.625000 -24.375000 0.000000 0.000000 0.000000 0.000000 
-20.625000 -24.375000 0.000000 0.000000 0.000000 0.000000 
-16.875000 -30.000000 4.531250 0.000000 0.000000 0.000000 
-17.812500 -30.000000 4.453125 0.000000 0.000000 0.000000 
-17.812500 -30.000000 4.609375 0.000000 0.000000 0.000000 
-15.937500 -30.000000 4.453125 0.000000 0.000000 0.000000 
-15.937500 -30.000000 4.609375 0.000000 0.000000 0.000000 
-16.875000 -30.000000 4.843750 0.000000 0.000000 0.000000 
-17.812500 -30.000000 4.765625 0.000000 0.000000 0.000000 
-17.812500 -30.000000 4.921875 0.000000 0.000000 0.000000 
-15.937500 -30.000000 4.765625 0.000000 0.000000 0.000000 
-15.937500 -30.000000 4.921875 0.000000 0.000000 0.000000 
-16.875000 -24.375000 0.000000 0.000000 0.000000 0.000000 
-16.875000 -24.375000 0.000000 0.000000 0.000000 0.000000 
-20.625000 -20.625000 0.000000 0.000000 0.000000 0.000000 
-20.625000 -20.625000 0.000000 0.000000 0.000000 0.000000 
-20.625000 -16.875000 0.000000 0.000000 0.000000 0.000000 
-20.625000 -16.875000 0.000000 0.000000 0.000000 0.000000 
-16.875000 -20.625000 0.000000 0.000000 0.000000 0.000000 
-16.875000 -20.625000 0.000000 0.000000 0.000000 0.000000 
-16.875000 -16.875000 0.000000 0.000000 0.000000 0.000000 
-16.875000 -16.875000 0.000000 0.000000 0.000000 0.000000 
-20.625000 -20.625000 0.000000 0.000000 0.000000 0.000000 
-20.625000 -20.625000 0.000000 0.000000 0.000000 0.000000 
-20.625000 -16.875000 0.000000 0.000000 0.000000 0.000000 
-20.625000 -16.875000 0.000000 0.000000 0.000000 0.000000 
-16.875000 -20.625000 0.000000 0.000000 0.000000 0.000000 
-16.875000 -20.625000 0.000000 0.000000 0.000000 0.000000 
-16.875000 -16.875000 0.000000 0.000000 0.000000 0.000000 
-16.875000 -16.875000 0.000000 0.000000 0.000000 0.000000 
-30.000000 -13.125000 2.656250 0.000000 0.000000 0.000000 
-30.000000 -14.062500 2.578125 0.000000 0.000000 0.000000 
-30.000000 -14.062500 2.734375 0.000000 0.000000 0.000000 
-30.000000 -12.187500 2.578125 0.000000 0.000000 0.000000 
-30.000000 -12.187500 2.734375 0.000000 0.000000 0.000000 
-27.187500 -14.062500 0.000000 0.000000 0.000000 0.000000 
-27.187500 -12.187500 0.000000 0.000000 0.000000 0.000000 
-30.000000 -13.125000 2.968750 0.000000 0.000000 0.000000 
-30.000000 -14.062500 2.890625 0.000000 0.000000 0.000000 
-30.000000 -14.062500 3.046875 0.000000 0.000000 0.000000 
-30.000000 -12.187500 2.890625 0.000000 0.000000 0.000000 
-30.000000 -12.187500 3.046875 0.000000 0.000000 0.000000 
-30.000000 -9.375000 2.656250 0.000000 0.000000 0.000000 
-30.000000 -10.312500 2.578125 0.000000 0.000000 0.000000 
-30.000000 -10.312500 2.734375 0.000000 0.000000 0.000000 
-30.000000 -8.437500 2.578125 0.000000 0.000000 0.000000 
-30.000000 -8.437500 2.734375 0.000000 0.000000 0.000000 
-27.187500 -10.312500 0.000000 0.000000 0.000000 0.000000 
-27.187500 -8.437500 0.000000 0.000000 0.000000 0.000000 
-30.000000 -9.375000 2.968750 0.000000 0.000000 0.000000 
-30.000000 -10.312500 2.890625 0.000000 0.000000 0.000000 
-30.000000 -10.312500 3.046875 0.000000 0.000000 0.000000 
-30.000000 -8.437500 2.890625 0.000000 0.000000 0.000000 
-30.000000 -8.437500 3.046875 0.000000 0.000000 0.000000 
-24.375000 -13.125000 0.000000 0.000000 0.000000 0.000000 
-25.312500 -14.062500 0.000000 0.000000 0.000000 0.000000 
-25.312500 -12.187500 0.000000 0.000000 0.000000 0.000000 
-23.437500 -14.062500 0.000000 0.000000 0.000000 0.000000 
-23.437500 -12.187500 0.000000 0.000000 0.000000 0.000000 
-24.375000 -13.125000 0.000000 0.000000 0.000000 0.000000 
-24.375000 -9.375000 0.000000 0.000000 0.000000 0.000000 
-25.312500 -10.312500 0.000000 0.000000 0.000000 0.000000 
-25.312500 -8.437500 0.000000 0.000000 0.000000 0.000000 
-23.437500 -10.312500 0.000000 0.000000 0.000000 0.000000 
-23.437500 -8.437500 0.000000 0.000000 0.000000 0.000000 
-24.375000 -9.375000 0.000000 0.000000 0.000000 0.000000 
-30.000000 -13.125000 3.281250 0.000000 0.000000 0.000000 
-30.000000 -14.062500 3.203125 0.000000 0.000000 0.000000 
-30.000000 -14.062500 3.359375 0.000000 0.000000 0.000000 
-30.000000 -12.187500 3.203125 0.000000 0.000000 0.000000 
-30.000000 -12.187500 3.359375 0.000000 0.000000 0.000000 
-30.000000 -13.125000 3.593750 0.000000 0.000000 0.000000 
-30.000000 -14.062500 3.515625 0.000000 0.000000 0.000000 
-30.000000 -14.062500 3.671875 0.000000 0.000000 0.000000 
-30.000000 -12.187500 3.515625 0.000000 0.000000 0.000000 
-30.000000 -12.187500 3.671875 0.000000 0.000000 0.000000 
-30.000000 -9.375000 3.281250 0.000000 0.000000 0.000000 
-30.000000 -10.312500 3.203125 0.000000 0.000000 0.000000 
-30.000000 -10.312500 3.359375 0.000000 0.000000 0.000000 
-30.000000 -8.437500 3.203125 0.000000 0.000000 0.000000 
-30.000000 -8.437500 3.359375 0.000000 0.000000 0.000000 
-30.000000 -9.375000 3.593750 0.000000 0.000000 0.000000 
-30.000000 -10.312500 3.515625 0.000000 0.000000 0.000000 
-30.000000 -10.312500 3.671875 0.000000 0.000000 0.000000 
-30.000000 -8.437500 3.515625 0.000000 0.000000 0.000000 
-30.000000 -8.437500 3.671875 0.000000 0.000000 0.000000 
-24.375000 -13.125000 0.000000 0.000000 0.000000 0.000000 
-24.375000 -13.125000 0.000000 0.000000 0.000000 0.000000 
-24.375000 -9.375000 0.000000 0.000000 0.000000 0.000000 
-24.375000 -9.375000 0.000000 0.000000 0.000000 0.000000 
-30.000000 -5.625000 2.656250 0.000000 0.000000 0.000000 
-30.000000 -6.562500 2.578125 0.000000 0.000000 0.000000 
-30.000000 -6.562500 2.734375 0.000000 0.000000 0.000000 
-30.000000 -4.687500 2.578125 0.000000 0.000000 0.000000 
-30.000000 -4.687500 2.734375 0.000000 0.000000 0.000000 
-27.187500 -6.562500 0.000000 0.000000 0.000000 0.000000 
-27.187500 -4.687500 0.000000 0.000000 0.000000 0.000000 
-30.000000 -5.625000 2.968750 0.000000 0.000000 0.000000 
-30.000000 -6.562500 2.890625 0.000000 0.000000 0.000000 
-30.000000 -6.562500 3.046875 0.000000 0.000000 0.000000 
-30.000000 -4.687500 2.890625 0.000000 0.000000 0.000000 
-30.000000 -4.687500 3.046875 0.000000 0.000000 0.000000 
-30.000000 -1.875000 2.656250 0.000000 0.000000 0.000000 
-30.000000 -2.812500 2.578125 0.000000 0.000000 0.000000 
-30.000000 -2.812500 2.734375 0.000000 0.000000 0.000000 
-30.000000 -0.937500 2.578125 0.000000 0.000000 0.000000 
-30.000000 -0.937500 2.734375 0.000000 0.000000 0.000000 
-27.187500 -2.812500 0.000000 0.000000 0.000000 0.000000 
-27.187500 -0.937500 0.000000 0.000000 0.000000 0.000000 
-30.000000 -1.875000 2.968750 0.000000 0.000000 0.000000 
-30.000000 -2.812500 2.890625 0.000000 0.000000 0.000000 
-30.000000 -2.812500 3.046875 0.000000 0.000000 0.000000 
-30.000000 -0.937500 2.890625 0.000000 0.000000 0.000000 
-30.000000 -0.937500 3.046875 0.000000 0.000000 0.000000 
-24.375000 -5.625000 0.000000 0.000000 0.000000 0.000000 
-25.312500 -6.562500 0.000000 0.000000 0.000000 0.000000 
-25.312500 -4.687500 0.000000 0.000000 0.000000 0.000000 
-23.437500 -6.562500 0.000000 0.000000 0.000000 0.000000 
-23.437500 -4.687500 0.000000 0.000000 0.000000 0.000000 
-24.375000 -5.625000 0.000000 0.000000 0.000000 0.000000 
-24.375000 -1.875000 0.000000 0.000000 0.000000 0.000000 
-25.312500 -2.812500 0.000000 0.000000 0.000000 0.000000 
-25.312500 -0.937500 0.000000 0.000000 0.000000 0.000000 
-23.437500 -2.812500 0.000000 0.000000 0.000000 0.000000 
-23.437500 -0.937500 0.000000 0.000000 0.000000 0.000000 
-24.375000 -1.875000 0.000000 0.000000 0.000000 0.000000 
-30.000000 -5.625000 3.281250 0.000000 0.000000 0.000000 
-30.000000 -6.562500 3.203125 0.000000 0.000000 0.000000 
-30.000000 -6.562500 3.359375 0.000000 0.000000 0.000000 
-30.000000 -4.687500 3.203125 0.000000 0.000000 0.000000 
-30.000000 -4.687500 3.359375 0.000000 0.000000 0.000000 
-30.000000 -5.625000 3.593750 0.000000 0.000000 0.000000 
-30.000000 -6.562500 3.515625 0.000000 0.000000 0.000000 
-30.000000 -6.562500 3.671875 0.000000 0.000000 0.000000 
-30.000000 -4.687500 3.515625 0.000000 0.000000 0.000000 
-30.000000 -4.687500 3.671875 0.000000 0.000000 0.000000 
-30.000000 -1.875000 3.281250 0.000000 0.000000 0.000000 
-30.000000 -2.812500 3.203125 0.000000 0.000000 0.000000 
-30.000000 -2.812500 3.359375 0.000000 0.000000 0.000000 
-30.000000 -0.937500 3.203125 0.000000 0.000000 0.000000 
-30.000000 -0.937500 3.359375 0.000000 0.000000 0.000000 
-30.000000 -1.875000 3.593750 0.000000 0.000000 0.000000 
-30.000000 -2.812500 3.515625 0.000000 0.000000 0.000000 
-30.000000 -2.812500 3.671875 0.000000 0.000000 0.000000 
-30.000000 -0.937500 3.515625 0.000000 0.000000 0.000000 
-30.000000 -0.937500 3.671875 0.000000 0.000000 0.000000 
-24.375000 -5.625000 0.000000 0.000000 0.000000 0.000000 
-24.375000 -5.625000 0.000000 0.000000 0.000000 0.000000 
-24.375000 -1.875000 0.000000 0.000000 0.000000 0.000000 
-24.375000 -1.875000 0.000000 0.000000 0.000000 0.000000 
-20.625000 -13.125000 0.000000 0.000000 0.000000 0.000000 
-21.562500 -14.062500 0.000000 0.000000 0.000000 0.000000 
-21.562500 -12.187500 0.000000 0.000000 0.000000 0.000000 
-19.687500 -14.062500 0.000000 0.000000 0.000000 0.000000 
-19.687500 -12.187500 0.000000 0.000000 0.000000 0.000000 
-20.625000 -13.125000 0.000000 0.000000 0.000000 0.000000 
-20.625000 -9.375000 0.000000 0.000000 0.000000 0.000000 
-21.562500 -10.312500 0.000000 0.000000 0.000000 0.000000 
-21.562500 -8.437500 0.000000 0.000000 0.000000 0.000000 
-19.687500 -10.312500 0.000000 0.000000 0.000000 0.000000 
-19.687500 -8.437500 0.000000 0.000000 0.000000 0.000000 
-20.625000 -9.375000 0.000000 0.000000 0.000000 0.000000 
-16.875000 -13.125000 0.000000 0.000000 0.000000 0.000000 
-17.812500 -14.062500 0.000000 0.000000 0.000000 0.000000 
-17.812500 -12.187500 0.000000 0.000000 0.000000 0.000000 
-15.937500 -14.062500 0.000000 0.000000 0.000000 0.000000 
-15.937500 -12.187500 0.000000 0.000000 0.000000 0.000000 
-16.875000 -13.125000 0.000000 0.000000 0.000000 0.000000 
-16.875000 -9.375000 0.000000 0.000000 0.000000 0.000000 
-17.812500 -10.312500 0.000000 0.000000 0.000000 0.000000 
-17.812500 -8.437500 0.000000 0.000000 0.000000 0.000000 
-15.937500 -10.312500 0.000000 0.000000 0.000000 0.000000 
-15.937500 -8.437500 0.000000 0.000000 0.000000 0.000000 
-16.875000 -9.375000 0.000000 0.000000 0.000000 0.000000 
-20.625000 -13.125000 0.000000 0.000000 0.000000 0.000000 
-20.625000 -13.125000 0.000000 0.000000 0.000000 0.000000 
-20.625000 -9.375000 0.000000 0.000000 0.000000 0.000000 
-20.625000 -9.375000 0.000000 0.000000 0.000000 0.000000 
-16.875000 -13.125000 0.000000 0.000000 0.000000 0.000000 
-16.875000 -13.125000 0.000000 0.000000 0.000000 0.000000 
-16.875000 -9.375000 0.000000 0.000000 0.000000 0.000000 
-16.875000 -9.375000 0.000000 0.000000 0.000000 0.000000 
-20.625000 -5.625000 0.000000 0.000000 0.000000 0.000000 
-21.562500 -6.562500 0.000000 0.000000 0.000000 0.000000 
-21.562500 -4.687500 0.000000 0.000000 0.000000 0.000000 
-19.687500 -6.562500 0.000000 0.000000 0.000000 0.000000 
-19.687500 -4.687500 0.000000 0.000000 0.000000 0.000000 
-20.625000 -5.625000 0.000000 0.000000 0.000000 0.000000 
-20.625000 -1.875000 0.000000 0.000000 0.000000 0.000000 
-21.562500 -2.812500 0.000000 0.000000 0.000000 0.000000 
-21.562500 -0.937500 0.000000 0.000000 0.000000 0.000000 
-19.687500 -2.812500 0.000000 0.000000 0.000000 0.000000 
-19.687500 -0.937500 0.000000 0.000000 0.000000 0.000000 
-20.625000 -1.875000 0.000000 0.000000 0.000000 0.000000 
-16.875000 -5.625000 0.000000 0.000000 0.000000 0.000000 
-17.812500 -6.562500 0.000000 0.000000 0.000000 0.000000 
-17.812500 -4.687500 0.000000 0.000000 0.000000 0.000000 
-15.937500 -6.562500 0.000000 0.000000 0.000000 0.000000 
-15.937500 -4.687500 0.000000 0.000000 0.000000 0.000000 
-16.875000 -5.625000 0.000000 0.000000 0.000000 0.000000 
-16.875000 -1.875000 0.000000 0.000000 0.000000 0.000000 
-17.812500 -2.812500 0.000000 0.000000 0.000000 0.000000 
-17.812500 -0.937500 0.000000 0.000000 0.000000 0.000000 
-15.937500 -2.812500 0.000000 0.000000 0.000000 0.000000 
-15.937500 -0.937500 0.000000 0.000000 0.000000 0.000000 
-16.875000 -1.875000 0.000000 0.000000 0.000000 0.000000 
-20.625000 -5.625000 0.000000 0.000000 0.000000 0.000000 
-20.625000 -5.625000 0.000000 0.000000 0.000000 0.000000 
-20.625000 -1.875000 0.000000 0.000000 0.000000 0.000000 
-20.625000 -1.875000 0.000000 0.000000 0.000000 0.000000 
-16.875000 -5.625000 0.000000 0.000000 0.000000 0.000000 
-16.875000 -5.625000 0.000000 0.000000 0.000000 0.000000 
-16.875000 -1.875000 0.000000 0.000000 0.000000 0.000000 
-16.875000 -1.875000 0.000000 0.000000 0.000000 0.000000 
-30.000000 -13.125000 3.906250 0.000000 0.000000 0.000000 
-30.000000 -14.062500 3.828125 0.000000 0.000000 0.000000 
-30.000000 -14.062500 3.984375 0.000000 0.000000 0.000000 
-30.000000 -12.187500 3.828125 0.000000 0.000000 0.000000 
-30.000000 -12.187500 3.984375 0.000000 0.000000 0.000000 
-30.000000 -13.125000 4.218750 0.000000 0.000000 0.000000 
-30.000000 -14.062500 4.140625 0.000000 0.000000 0.000000 
-30.000000 -14.062500 4.296875 0.000000 0.000000 0.000000 
-30.000000 -12.187500 4.140625 0.000000 0.000000 0.000000 
-30.000000 -12.187500 4.296875 0.000000 0.000000 0.000000 
-30.000000 -9.375000 3.906250 0.000000 0.000000 0.000000 
-30.000000 -10.312500 3.828125 0.000000 0.000000 0.000000 
-30.000000 -10.312500 3.984375 0.000000 0.000000 0.000000 
-30.000000 -8.437500 3.828125 0.000000 0.000000 0.000000 
-30.000000 -8.437500 3.984375 0.000000 0.000000 0.000000 
-30.000000 -9.375000 4.218750 0.000000 0.000000 0.000000 
-30.000000 -10.312500 4.140625 0.000000 0.000000 0.000000 
-30.000000 -10.312500 4.296875 0.000000 0.000000 0.000000 
-30.000000 -8.437500 4.140625 0.000000 0.000000 0.000000 
-30.000000 -8.437500 4.296875 0.000000 0.000000 0.000000 
-24.375000 -13.125000 0.000000 0.000000 0.000000 0.000000 
-24.375000 -13.125000 0.000000 0.000000 0.000000 0.000000 
-24.375000 -9.375000 0.000000 0.000000 0.000000 0.000000 
-24.375000 -9.375000 0.000000 0.000000 0.000000 0.000000 
-30.000000 -13.125000 4.531250 0.000000 0.000000 0.000000 
-30.000000 -14.062500 4.453125 0.000000 0.000000 0.000000 
-30.000000 -14.062500 4.609375 0.000000 0.000000 0.000000 
-30.000000 -12.187500 4.453125 0.000000 0.000000 0.000000 
-30.000000 -12.187500 4.609375 0.000000 0.000000 0.000000 
-30.000000 -13.125000 4.843750 0.000000 0.000000 0.000000 
-30.000000 -14.062500 4.765625 0.000000 0.000000 0.000000 
-30.000000 -14.062500 4.921875 0.000000 0.000000 0.000000 
-30.000000 -12.187500 4.765625 0.000000 0.000000 0.000000 
-30.000000 -12.187500 4.921875 0.000000 0.000000 0.000000 
-30.000000 -9.375000 4.531250 0.000000 0.000000 0.000000 
-30.000000 -10.312500 4.453125 0.000000 0.000000 0.000000 
-30.000000 -10.312500 4.609375 0.000000 0.000000 0.000000 
-30.000000 -8.437500 4.453125 0.000000 0.000000 0.000000 
-30.000000 -8.437500 4.609375 0.000000 0.000000 0.000000 
-30.000000 -9.375000 4.843750 0.000000 0.000000 0.000000 
-30.000000 -10.312500 4.765625 0.000000 0.000000 0.000000 
-30.000000 -10.312500 4.921875 0.000000 0.000000 0.000000 
-30.000000 -8.437500 4.765625 0.000000 0.000000 0.000000 
-30.000000 -8.437500 4.921875 0.000000 0.000000 0.000000 
-24.375000 -13.125000 0.000000 0.000000 0.000000 0.000000 
-24.375000 -13.125000 0.000000 0.000000 0.000000 0.000000 
-24.375000 -9.375000 0.000000 0.000000 0.000000 0.000000 
-24.375000 -9.375000 0.000000 0.000000 0.000000 0.000000 
-30.000000 -5.625000 3.906250 0.000000 0.000000 0.000000 
-30.000000 -6.562500 3.828125 0.000000 0.000000 0.000000 
-30.000000 -6.562500 3.984375 0.000000 0.000000 0.000000 
-30.000000 -4.687500 3.828125 0.000000 0.000000 0.000000 
-30.000000 -4.687500 3.984375 0.000000 0.000000 0.000000 
-30.000000 -5.625000 4.218750 0.000000 0.000000 0.000000 
-30.000000 -6.562500 4.140625 0.000000 0.000000 0.000000 
-30.000000 -6.562500 4.296875 0.000000 0.000000 0.000000 
-30.000000 -4.687500 4.140625 0.000000 0.000000 0.000000 
-30.000000 -4.687500 4.296875 0.000000 0.000000 0.000000 
-30.000000 -1.875000 3.906250 0.000000 0.000000 0.000000 
-30.000000 -2.812500 3.828125 0.000000 0.000000 0.000000 
-30.000000 -2.812500 3.984375 0.000000 0.000000 0.000000 
-30.000000 -0.937500 3.828125 0.000000 0.000000 0.000000 
-30.000000 -0.937500 3.984375 0.000000 0.000000 0.000000 
-30.000000 -1.875000 4.218750 0.000000 0.000000 0.000000 
-30.000000 -2.812500 4.140625 0.000000 0.000000 0.000000 
-30.000000 -2.812500 4.296875 0.000000 0.000000 0.000000 
-30.000000 -0.937500 4.140625 0.000000 0.000000 0.000000 
-30.000000 -0.937500 4.296875 0.000000 0.000000 0.000000 
-24.375000 -5.625000 0.000000 0.000000 0.000000 0.000000 
-24.375000 -5.625000 0.000000 0.000000 0.000000 0.000000 
-24.375000 -1.875000 0.000000 0.000000 0.000000 0.000000 
-24.375000 -1.875000 0.000000 0.000000 0.000000 0.000000 
-30.000000 -5.625000 4.531250 0.000000 0.000000 0.000000 
-30.000000 -6.562500 4.453125 0.000000 0.000000 0.000000 
-30.000000 -6.562500 4.609375 0.000000 0.000000 0.000000 
-30.000000 -4.687500 4.453125 0.000000 0.000000 0.000000 
-30.000000 -4.687500 4.609375 0.000000 0.000000 0.000000 
-30.000000 -5.625000 4.843750 0.000000 0.000000 0.000000 
-30.000000 -6.562500 4.765625 0.000000 0.000000 0.000000 
-30.000000 -6.562500 4.921875 0.000000 0.000000 0.000000 
-30.000000 -4.687500 4.765625 0.000000 0.000000 0.000000 
-30.000000 -4.687500 4.921875 0.000000 0.000000 0.000000 
-30.000000 -1.875000 4.531250 0.000000 0.000000 0.000000 
-30.000000 -2.812500 4.453125 0.000000 0.000000 0.000000 
-30.000000 -2.812500 4.609375 0.000000 0.000000 0.000000 
-30.000000 -0.937500 4.453125 0.000000 0.000000 0.000000 
-30.000000 -0.937500 4.609375 0.000000 0.000000 0.000000 
-30.000000 -1.875000 4.843750 0.000000 0.000000 0.000000 
-30.000000 -2.812500 4.765625 0.000000 0.000000 0.000000 
-30.000000 -2.812500 4.921875 0.000000 0.000000 0.000000 
-30.000000 -0.937500 4.765625 0.000000 0.000000 0.000000 
-30.000000 -0.937500 4.921875 0.000000 0.000000 0.000000 
-24.375000 -5.625000 0.000000 0.000000 0.000000 0.000000 
-24.375000 -5.625000 0.000000 0.000000 0.000000 0.000000 
-24.375000 -1.875000 0.000000 0.000000 0.000000 0.000000 
-24.375000 -1.875000 0.000000 0.000000 0.000000 0.000000 
-20.625000 -13.125000 0.000000 0.000000 0.000000 0.000000 
-20.625000 -13.125000 0.000000 0.000000 0.000000 0.000000 
-20.625000 -9.375000 0.000000 0.000000 0.000000 0.000000 
-20.625000 -9.375000 0.000000 0.000000 0.000000 0.000000 
-16.875000 -13.125000 0.000000 0.000000 0.000000 0.000000 
-16.875000 -13.125000 0.000000 0.000000 0.000000 0.000000 
-16.875000 -9.375000 0.000000 0.000000 0.000000 0.000000 
-16.875000 -9.375000 0.000000 0.000000 0.000000 0.000000 
-20.625000 -13.125000 0.000000 0.000000 0.000000 0.000000 
-20.625000 -13.125000 0.000000 0.000000 0.000000 0.000000 
-20.625000 -9.375000 0.000000 0.000000 0.000000 0.000000 
-20.625000 -9.375000 0.000000 0.000000 0.000000 0.000000 
-16.875000 -13.125000 0.000000 0.000000 0.000000 0.000000 
-16.875000 -13.125000 0.000000 0.000000 0.000000 0.000000 
-16.875000 -9.375000 0.000000 0.000000 0.000000 0.000000 
-16.875000 -9.375000 0.000000 0.000000 0.000000 0.000000 
-20.625000 -5.625000 0.000000 0.000000 0.000000 0.000000 
-20.625000 -5.625000 0.000000 0.000000 0.000000 0.000000 
-20.625000 -1.875000 0.000000 0.000000 0.000000 0.000000 
-20.625000 -1.875000 0.000000 0.000000 0.000000 0.000000 
-16.875000 -5.625000 0.000000 0.000000 0.000000 0.000000 
-16.875000 -5.625000 0.000000 0.000000 0.000000 0.000000 
-16.875000 -1.875000 0.000000 0.000000 0.000000 0.000000 
-16.875000 -1.875000 0.000000 0.000000 0.000000 0.000000 
-20.625000 -5.625000 0.000000 0.000000 0.000000 0.000000 
-20.625000 -5.625000 0.000000 0.000000 0.000000 0.000000 
-20.625000 -1.875000 0.000000 0.000000 0.000000 0.000000 
-20.625000 -1.875000 0.000000 0.000000 0.000000 0.000000 
-16.875000 -5.625000 0.000000 0.000000 0.000000 0.000000 
-16.875000 -5.625000 0.000000 0.000000 0.000000 0.000000 
-16.875000 -1.875000 0.000000 0.000000 0.000000 0.000000 
-16.875000 -1.875000 0.000000 0.000000 0.000000 0.000000 
-13.125000 -30.000000 2.656250 0.000000 0.000000 0.000000 
-14.062500 -30.000000 2.578125 0.000000 0.000000 0.000000 
-14.062500 -30.000000 2.734375 0.000000 0.000000 0.000000 
-14.062500 -27.187500 0.000000 0.000000 0.000000 0.000000 
-12.187500 -30.000000 2.578125 0.000000 0.000000 0.000000 
-12.187500 -30.000000 2.734375 0.000000 0.000000 0.000000 
-12.187500 -27.187500 0.000000 0.000000 0.000000 0.000000 
-13.125000 -30.000000 2.968750 0.000000 0.000000 0.000000 
-14.062500 -30.000000 2.890625 0.000000 0.000000 0.000000 
-14.062500 -30.000000 3.046875 0.000000 0.000000 0.000000 
-12.187500 -30.000000 2.890625 0.000000 0.000000 0.000000 
-12.187500 -30.000000 3.046875 0.000000 0.000000 0.000000 
-13.125000 -24.375000 0.000000 0.000000 0.000000 0.000000 
-14.062500 -25.312500 0.000000 0.000000 0.000000 0.000000 
-14.062500 -23.437500 0.000000 0.000000 0.000000 0.000000 
-12.187500 -25.312500 0.000000 0.000000 0.000000 0.000000 
-12.187500 -23.437500 0.000000 0.000000 0.000000 0.000000 
-13.125000 -24.375000 0.000000 0.000000 0.000000 0.000000 
-9.375000 -30.000000 2.656250 0.000000 0.000000 0.000000 
-10.312500 -30.000000 2.578125 0.000000 0.000000 0.000000 
-10.312500 -30.000000 2.734375 0.000000 0.000000 0.000000 
-10.312500 -27.187500 0.000000 0.000000 0.000000 0.000000 
-8.437500 -30.000000 2.578125 0.000000 0.000000 0.000000 
-8.437500 -30.000000 2.734375 0.000000 0.000000 0.000000 
-8.437500 -27.187500 0.000000 0.000000 0.000000 0.000000 
-9.375000 -30.000000 2.968750 0.000000 0.000000 0.000000 
-10.312500 -30.000000 2.890625 0.000000 0.000000 0.000000 
-10.312500 -30.000000 3.046875 0.000000 0.000000 0.000000 
-8.437500 -30.000000 2.890625 0.000000 0.000000 0.000000 
-8.437500 -30.000000 3.046875 0.000000 0.000000 0.000000 
-9.375000 -24.375000 0.000000 0.000000 0.000000 0.000000 
-10.312500 -25.312500 0.000000 0.000000 0.000000 0.000000 
-10.312500 -23.437500 0.000000 0.000000 0.000000 0.000000 
-8.437500 -25.312500 0.000000 0.000000 0.000000 0.000000 
-8.437500 -23.437500 0.000000 0.000000 0.000000 0.000000 
-9.375000 -24.375000 0.000000 0.000000 0.000000 0.000000 
-13.125000 -30.000000 3.281250 0.000000 0.000000 0.000000 
-14.062500 -30.000000 3.203125 0.000000 0.000000 0.000000 
-14.062500 -30.000000 3.359375 0.000000 0.000000 0.000000 
-12.187500 -30.000000 3.203125 0.000000 0.000000 0.000000 
-12.187500 -30.000000 3.359375 0.000000 0.000000 0.000000 
-13.125000 -30.000000 3.593750 0.000000 0.000000 0.000000 
-14.062500 -30.000000 3.515625 0.000000 0.000000 0.000000 
-14.062500 -30.000000 3.671875 0.000000 0.000000 0.000000 
-12.187500 -30.000000 3.515625 0.000000 0.000000 0.000000 
-12.187500 -30.000000 3.671875 0.000000 0.000000 0.000000 
-13.125000 -24.375000 0.000000 0.000000 0.000000 0.000000 
-13.125000 -24.375000 0.000000 0.000000 0.000000 0.000000 
-9.375000 -30.000000 3.281250 0.000000 0.000000 0.000000 
-10.312500 -30.000000 3.203125 0.000000 0.000000 0.000000 
-10.312500 -30.000000 3.359375 0.000000 0.000000 0.000000 
-8.437500 -30.000000 3.203125 0.000000 0.000000 0.000000 
-8.437500 -30.000000 3.359375 0.000000 0.000000 0.000000 
-9.375000 -30.000000 3.593750 0.000000 0.000000 0.000000 
-10.312500 -30.000000 3.515625 0.000000 0.000000 0.000000 
-10.312500 -30.000000 3.671875 0.000000 0.000000 0.000000 
-8.437500 -30.000000 3.515625 0.000000 0.000000 0.000000 
-8.437500 -30.000000 3.671875 0.000000 0.000000 0.000000 
-9.375000 -24.375000 0.000000 0.000000 0.000000 0.000000 
-9.375000 -24.375000 0.000000 0.000000 0.000000 0.000000 
-13.125000 -20.625000 0.000000 0.000000 0.000000 0.000000 
-14.062500 -21.562500 0.000000 0.000000 0.000000 0.000000 
-14.062500 -19.687500 0.000000 0.000000 0.000000 0.000000 
-12.187500 -21.562500 0.000000 0.000000 0.000000 0.000000 
-12.187500 -19.687500 0.000000 0.000000 0.000000 0.000000 
-13.125000 -20.625000 0.000000 0.000000 0.000000 0.000000 
-13.125000 -16.875000 0.000000 0.000000 0.000000 0.000000 
-14.062500 -17.812500 0.000000 0.000000 0.000000 0.000000 
-14.062500 -15.937500 0.000000 0.000000 0.000000 0.000000 
-12.187500 -17.812500 0.000000 0.000000 0.000000 0.000000 
-12.187500 -15.937500 0.000000 0.000000 0.000000 0.000000 
-13.125000 -16.875000 0.000000 0.000000 0.000000 0.000000 
-9.375000 -20.625000 0.000000 0.000000 0.000000 0.000000 
-10.312500 -21.562500 0.000000 0.000000 0.000000 0.000000 
-10.312500 -19.687500 0.000000 0.000000 0.000000 0.000000 
-8.437500 -21.562500 0.000000 0.000000 0.000000 0.000000 
-8.437500 -19.687500 0.000000 0.000000 0.000000 0.000000 
-9.375000 -20.625000 0.000000 0.000000 0.000000 0.000000 
-9.375000 -16.875000 0.000000 0.000000 0.000000 0.000000 
-10.312500 -17.812500 0.000000 0.000000 0.000000 0.000000 
-10.312500 -15.937500 0.000000 0.000000 0.000000 0.000000 
-8.437500 -17.812500 0.000000 0.000000 0.000000 0.000000 
-8.437500 -15.937500 0.000000 0.000000 0.000000 0.000000 
-9.375000 -16.875000 0.000000 0.000000 0.000000 0.000000 
-13.125000 -20.625000 0.000000 0.000000 0.000000 0.000000 
-13.125000 -20.625000 0.000000 0.000000 0.000000 0.000000 
-13.125000 -16.875000 0.000000 0.000000 0.000000 0.000000 
-13.125000 -16.875000 0.000000 0.000000 0.000000 0.000000 
-9.375000 -20.625000 0.000000 0.000000 0.000000 0.000000 
-9.375000 -20.625000 0.000000 0.000000 0.000000 0.000000 
-9.375000 -16.875000 0.000000 0.000000 0.000000 0.000000 
-9.375000 -16.875000 0.000000 0.000000 0.000000 0.000000 
-5.625000 -30.000000 2.656250 0.000000 0.000000 0.000000 
-6.562500 -30.000000 2.578125 0.000000 0.000000 0.000000 
-6.562500 -30.000000 2.734375 0.000000 0.000000 0.000000 
-6.562500 -27.187500 0.000000 0.000000 0.000000 0.000000 
-4.687500 -30.000000 2.578125 0.000000 0.000000 0.000000 
-4.687500 -30.000000 2.734375 0.000000 0.000000 0.000000 
-4.687500 -27.187500 0.000000 0.000000 0.000000 0.000000 
-5.625000 -30.000000 2.968750 0.000000 0.000000 0.000000 
-6.562500 -30.000000 2.890625 0.000000 0.000000 0.000000 
-6.562500 -30.000000 3.046875 0.000000 0.000000 0.000000 
-4.687500 -30.000000 2.890625 0.000000 0.000000 0.000000 
-4.687500 -30.000000 3.046875 0.000000 0.000000 0.000000 
-5.625000 -24.375000 0.000000 0.000000 0.000000 0.000000 
-6.562500 -25.312500 0.000000 0.000000 0.000000 0.000000 
-6.562500 -23.437500 0.000000 0.000000 0.000000 0.000000 
-4.687500 -25.312500 0.000000 0.000000 0.000000 0.000000 
-4.687500 -23.437500 0.000000 0.000000 0.000000 0.000000 
-5.625000 -24.375000 0.000000 0.000000 0.000000 0.000000 
-1.875000 -30.000000 2.656250 0.000000 0.000000 0.000000 
-2.812500 -30.000000 2.578125 0.000000 0.000000 0.000000 
-2.812500 -30.000000 2.734375 0.000000 0.000000 0.000000 
-2.812500 -27.187500 0.000000 0.000000 0.000000 0.000000 
-0.937500 -30.000000 2.578125 0.000000 0.000000 0.000000 
-0.937500 -30.000000 2.734375 0.000000 0.000000 0.000000 
-0.937500 -27.187500 0.000000 0.000000 0.000000 0.000000 
-1.875000 -30.000000 2.968750 0.000000 0.000000 0.000000 
-2.812500 -30.000000 2.890625 0.000000 0.000000 0.000000 
-2.812500 -30.000000 3.046875 0.000000 0.000000 0.000000 
-0.937500 -30.000000 2.890625 0.000000 0.000000 0.000000 
-0.937500 -30.000000 3.046875 0.000000 0.000000 0.000000 
-1.875000 -24.375000 0.000000 0.000000 0.000000 0.000000 
-2.812500 -25.312500 0.000000 0.000000 0.000000 0.000000 
-2.812500 -23.437500 0.000000 0.000000 0.000000 0.000000 
-0.937500 -25.312500 0.000000 0.000000 0.000000 0.000000 
-0.937500 -23.437500 0.000000 0.000000 0.000000 0.000000 
-1.875000 -24.375000 0.000000 0.000000 0.000000 0.000000 
-5.625000 -30.000000 3.281250 0.000000 0.000000 0.000000 
-6.562500 -30.000000 3.203125 0.000000 0.000000 0.000000 
-6.562500 -30.000000 3.359375 0.000000 0.000000 0.000000 
-4.687500 -30.000000 3.203125 0.000000 0.000000 0.000000 
-4.687500 -30.000000 3.359375 0.000000 0.000000 0.000000 
-5.625000 -30.000000 3.593750 0.000000 0.000000 0.000000 
-6.562500 -30.000000 3.515625 0.000000 0.000000 0.000000 
-6.562500 -30.000000 3.671875 0.000000 0.000000 0.000000 
-4.687500 -30.000000 3.515625 0.000000 0.000000 0.000000 
-4.687500 -30.000000 3.671875 0.000000 0.000000 0.000000 
-5.625000 -24.375000 0.000000 0.000000 0.000000 0.000000 
-5.625000 -24.375000 0.000000 0.000000 0.000000 0.000000 
-1.875000 -30.000000 3.281250 0.000000 0.000000 0.000000 
-2.812500 -30.000000 3.203125 0.000000 0.000000 0.000000 
-2.812500 -30.000000 3.359375 0.000000 0.000000 0.000000 
-0.937500 -30.000000 3.203125 0.000000 0.000000 0.000000 
-0.937500 -30.000000 3.359375 0.000000 0.000000 0.000000 
-1.875000 -30.000000 3.593750 0.000000 0.000000 0.000000 
-2.812500 -30.000000 3.515625 0.000000 0.000000 0.000000 
-2.812500 -30.000000 3.671875 0.000000 0.000000 0.000000 
-0.937500 -30.000000 3.515625 0.000000 0.000000 0.000000 
-0.937500 -30.000000 3.671875 0.000000 0.000000 0.000000 
-1.875000 -24.375000 0.000000 0.000000 0.000000 0.000000 
-1.875000 -24.375000 0.000000 0.000000 0.000000 0.000000 
-5.625000 -20.625000 0.000000 0.000000 0.000000 0.000000 
-6.562500 -21.562500 0.000000 0.000000 0.000000 0.000000 
-6.562500 -19.687500 0.000000 0.000000 0.000000 0.000000 
-4.687500 -21.562500 0.000000 0.000000 0.000000 0.000000 
-4.687500 -19.687500 0.000000 0.000000 0.000000 0.000000 
-5.625000 -20.625000 0.000000 0.000000 0.000000 0.000000 
-5.625000 -16.875000 0.000000 0.000000 0.000000 0.000000 
-6.562500 -17.812500 0.000000 0.000000 0.000000 0.000000 
-6.562500 -15.937500 0.000000 0.000000 0.000000 0.000000 
-4.687500 -17.812500 0.000000 0.000000 0.000000 0.000000 
-4.687500 -15.937500 0.000000 0.000000 0.000000 0.000000 
-5.625000 -16.875000 0.000000 0.000000 0.000000 0.000000 
-1.875000 -20.625000 0.000000 0.000000 0.000000 0.000000 
-2.812500 -21.562500 0.000000 0.000000 0.000000 0.000000 
-2.812500 -19.687500 0.000000 0.000000 0.000000 0.000000 
-0.937500 -21.562500 0.000000 0.000000 0.000000 0.000000 
-0.937500 -19.687500 0.000000 0.000000 0.000000 0.000000 
-1.875000 -20.625000 0.000000 0.000000 0.000000 0.000000 
-1.875000 -16.875000 0.000000 0.000000 0.000000 0.000000 
-2.812500 -17.812500 0.000000 0.000000 0.000000 0.000000 
-2.812500 -15.937500 0.000000 0.000000 0.000000 0.000000 
-0.937500 -17.812500 0.000000 0.000000 0.000000 0.000000 
-0.937500 -15.937500 0.000000 0.000000 0.000000 0.000000 
-1.875000 -16.875000 0.000000 0.000000 0.000000 0.000000 
-5.625000 -20.625000 0.000000 0.000000 0.000000 0.000000 
-5.625000 -20.625000 0.000000 0.000000 0.000000 0.000000 
-5.625000 -16.875000 0.000000 0.000000 0.000000 0.000000 
-5.625000 -16.875000 0.000000 0.000000 0.000000 0.000000 
-1.875000 -20.625000 0.000000 0.000000 0.000000 0.000000 
-1.875000 -20.625000 0.000000 0.000000 0.000000 0.000000 
-1.875000 -16.875000 0.000000 0.000000 0.000000 0.000000 
-1.875000 -16.875000 0.000000 0.000000 0.000000 0.000000 
-13.125000 -30.000000 3.906250 0.000000 0.000000 0.000000 
-14.062500 -30.000000 3.828125 0.000000 0.000000 0.000000 
-14.062500 -30.000000 3.984375 0.000000 0.000000 0.000000 
-12.187500 -30.000000 3.828125 0.000000 0.000000 0.000000 
-12.187500 -30.000000 3.984375 0.000000 0.000000 0.000000 
-13.125000 -30.000000 4.218750 0.000000 0.000000 0.000000 
-14.062500 -30.000000 4.140625 0.000000 0.000000 0.000000 
-14.062500 -30.000000 4.296875 0.000000 0.000000 0.000000 
-12.187500 -30.000000 4.140625 0.000000 0.000000 0.000000 
-12.187500 -30.000000 4.296875 0.000000 0.000000 0.000000 
-13.125000 -24.375000 0.000000 0.000000 0.000000 0.000000 
-13.125000 -24.375000 0.000000 0.000000 0.000000 0.000000 
-9.375000 -30.000000 3.906250 0.000000 0.000000 0.000000 
-10.312500 -30.000000 3.828125 0.000000 0.000000 0.000000 
-10.312500 -30.000000 3.984375 0.000000 0.000000 0.000000 
-8.437500 -30.000000 3.828125 0.000000 0.000000 0.000000 
-8.437500 -30.000000 3.984375 0.000000 0.000000 0.000000 
-9.375000 -30.000000 4.218750 0.000000 0.000000 0.000000 
-10.312500 -30.000000 4.140625 0.000000 0.000000 0.000000 
-10.312500 -30.000000 4.296875 0.000000 0.000000 0.000000 
-8.437500 -30.000000 4.140625 0.000000 0.000000 0.000000 
-8.437500 -30.000000 4.296875 0.000000 0.000000 0.000000 
-9.375000 -24.375000 0.000000 0.000000 0.000000 0.000000 
-9.375000 -24.375000 0.000000 0.000000 0.000000 0.000000 
-13.125000 -30.000000 4.531250 0.000000 0.000000 0.000000 
-14.062500 -30.000000 4.453125 0.000000 0.000000 0.000000 
-14.062500 -30.000000 4.609375 0.000000 0.000000 0.000000 
-12.187500 -30.000000 4.453125 0.000000 0.000000 0.000000 
-12.187500 -30.000000 4.609375 0.000000 0.000000 0.000000 
-13.125000 -30.000000 4.843750 0.000000 0.000000 0.000000 
-14.062500 -30.000000 4.765625 0.000000 0.000000 0.000000 
-14.062500 -30.000000 4.921875 0.000000 0.000000 0.000000 
-12.187500 -30.000000 4.765625 0.000000 0.000000 0.000000 
-12.187500 -30.000000 4.921875 0.000000 0.000000 0.000000 
-13.125000 -24.375000 0.000000 0.000000 0.000000 0.000000 
-13.125000 -24.375000 0.000000 0.000000 0.000000 0.000000 
-9.375000 -30.000000 4.531250 0.000000 0.000000 0.000000 
-10.312500 -30.000000 4.453125 0.000000 0.000000 0.000000 
-10.312500 -30.000000 4.609375 0.000000 0.000000 0.000000 
-8.437500 -30.000000 4.453125 0.000000 0.000000 0.000000 
-8.437500 -30.000000 4.609375 0.000000 0.000000 0.000000 
-9.375000 -30.000000 4.843750 0.000000 0.000000 0.000000 
-10.312500 -30.000000 4.765625 0.000000 0.000000 0.000000 
-10.312500 -30.000000 4.921875 0.000000 0.000000 0.000000 
-8.437500 -30.000000 4.765625 0.000000 0.000000 0.000000 
-8.437500 -30.000000 4.921875 0.000000 0.000000 0.000000 
-9.375000 -24.375000 0.000000 0.000000 0.000000 0.000000 
-9.375000 -24.375000 0.000000 0.000000 0.000000 0.000000 
-13.125000 -20.625000 0.000000 0.000000 0.000000 0.000000 
-13.125000 -20.625000 0.000000 0.000000 0.000000 0.000000 
-13.125000 -16.875000 0.000000 0.000000 0.000000 0.000000 
-13.125000 -16.875000 0.000000 0.000000 0.000000 0.000000 
-9.375000 -20.625000 0.000000 0.000000 0.000000 0.000000 
-9.375000 -20.625000 0.000000 0.000000 0.000000 0.000000 
-9.375000 -16.875000 0.000000 0.000000 0.000000 0.000000 
-9.375000 -16.875000 0.000000 0.000000 0.000000 0.000000 
-13.125000 -20.625000 0.000000 0.000000 0.000000 0.000000 
-13.125000 -20.625000 0.000000 0.000000 0.000000 0.000000 
-13.125000 -16.875000 0.000000 0.000000 0.000000 0.000000 
-13.125000 -16.875000 0.000000 0.000000 0.000000 0.000000 
-9.375000 -20.625000 0.000000 0.000000 0.000000 0.000000 
-9.375000 -20.625000 0.000000 0.000000 0.000000 0.000000 
-9.375000 -16.875000 0.000000 0.000000 0.000000 0.000000 
-9.375000 -16.875000 0.000000 0.000000 0.000000 0.000000 
-5.625000 -30.000000 3.906250 0.000000 0.000000 0.000000 
-6.562500 -30.000000 3.828125 0.000000 0.000000 0.000000 
-6.562500 -30.000000 3.984375 0.000000 0.000000 0.000000 
-4.687500 -30.000000 3.828125 0.000000 0.000000 0.000000 
-4.687500 -30.000000 3.984375 0.000000 0.000000 0.000000 
-5.625000 -30.000000 4.218750 0.000000 0.000000 0.000000 
-6.562500 -30.000000 4.140625 0.000000 0.000000 0.000000 
-6.562500 -30.000000 4.296875 0.000000 0.000000 0.000000 
-4.687500 -30.000000 4.140625 0.000000 0.000000 0.000000 
-4.687500 -30.000000 4.296875 0.000000 0.000000 0.000000 
-5.625000 -24.375000 0.000000 0.000000 0.000000 0.000000 
-5.625000 -24.375000 0.000000 0.000000 0.000000 0.000000 
-1.875000 -30.000000 3.906250 0.000000 0.000000 0.000000 
-2.812500 -30.000000 3.828125 0.000000 0.000000 0.000000 
-2.812500 -30.000000 3.984375 0.000000 0.000000 0.000000 
-0.937500 -30.000000 3.828125 0.000000 0.000000 0.000000 
-0.937500 -30.000000 3.984375 0.000000 0.000000 0.000000 
-1.875000 -30.000000 4.218750 0.000000 0.000000 0.000000 
-2.812500 -30.000000 4.140625 0.000000 0.000000 0.000000 
-2.812500 -30.000000 4.296875 0.000000 0.000000 0.000000 
-0.937500 -30.000000 4.140625 0.000000 0.000000 0.000000 
-0.937500 -30.000000 4.296875 0.000000 0.000000 0.000000 
-1.875000 -24.375000 0.000000 0.000000 0.000000 0.000000 
-1.875000 -24.375000 0.000000 0.000000 0.000000 0.000000 
-5.625000 -30.000000 4.531250 0.000000 0.000000 0.000000 
-6.562500 -30.000000 4.453125 0.000000 0.000000 0.000000 
-6.562500 -30.000000 4.609375 0.000000 0.000000 0.000000 
-4.687500 -30.000000 4.453125 0.000000 0.000000 0.000000 
-4.687500 -30.000000 4.609375 0.000000 0.000000 0.000000 
-5.625000 -30.000000 4.843750 0.000000 0.000000 0.000000 
-6.562500 -30.000000 4.765625 0.000000 0.000000 0.000000 
-6.562500 -30.000000 4.921875 0.000000 0.000000 0.000000 
-4.687500 -30.000000 4.765625 0.000000 0.000000 0.000000 
-4.687500 -30.000000 4.921875 0.000000 0.000000 0.000000 
-5.625000 -24.375000 0.000000 0.000000 0.000000 0.000000 
-5.625000 -24.375000 0.000000 0.000000 0.000000 0.000000 
-1.875000 -30.000000 4.531250 0.000000 0.000000 0.000000 
-2.812500 -30.000000 4.453125 0.000000 0.000000 0.000000 
-2.812500 -30.000000 4.609375 0.000000 0.000000 0.000000 
-0.937500 -30.000000 4.453125 0.000000 0.000000 0.000000 
-0.937500 -30.000000 4.609375 0.000000 0.000000 0.000000 
-1.875000 -30.000000 4.843750 0.000000 0.000000 0.000000 
-2.812500 -30.000000 4.765625 0.000000 0.000000 0.000000 
-2.812500 -30.000000 4.921875 0.000000 0.000000 0.000000 
-0.937500 -30.000000 4.765625 0.000000 0.000000 0.000000 
-0.937500 -30.000000 4.921875 0.000000 0.000000 0.000000 
-1.875000 -24.375000 0.000000 0.000000 0.000000 0.000000 
-1.875000 -24.375000 0.000000 0.000000 0.000000 0.000000 
-5.625000 -20.625000 0.000000 0.000000 0.000000 0.000000 
-5.625000 -20.625000 0.000000 0.000000 0.000000 0.000000 
-5.625000 -16.875000 0.000000 0.000000 0.000000 0.000000 
-5.625000 -16.875000 0.000000 0.000000 0.000000 0.000000 
-1.875000 -20.625000 0.000000 0.000000 0.000000 0.000000 
-1.875000 -20.625000 0.000000 0.000000 0.000000 0.000000 
-1.875000 -16.875000 0.000000 0.000000 0.000000 0.000000 
-1.875000 -16.875000 0.000000 0.000000 0.000000 0.000000 
-5.625000 -20.625000 0.000000 0.000000 0.000000 0.000000 
-5.625000 -20.625000 0.000000 0.000000 0.000000 0.000000 
-5.625000 -16.875000 0.000000 0.000000 0.000000 0.000000 
-5.625000 -16.875000 0.000000 0.000000 0.000000 0.000000 
-1.875000 -20.625000 0.000000 0.000000 0.000000 0.000000 
-1.875000 -20.625000 0.000000 0.000000 0.000000 0.000000 
-1.875000 -16.875000 0.000000 0.000000 0.000000 0.000000 
