40.781250 32.343750 -20.000000 0.000000 0.000000 0.000000 
40.781250 32.343750 -20.000000 0.000000 0.000000 0.000000 
43.593750 29.531250 -20.000000 0.000000 0.000000 0.000000 
43.593750 29.531250 -20.000000 0.000000 0.000000 0.000000 
43.593750 32.343750 -20.000000 0.000000 0.000000 0.000000 
43.593750 32.343750 -20.000000 0.000000 0.000000 0.000000 
42.187500 30.937500 -20.000000 0.000000 0.000000 0.000000 
36.562500 25.312500 0.000000 0.000000 0.000000 0.000000 
36.562500 25.312500 0.000000 0.000000 0.000000 0.000000 
35.156250 23.906250 0.000000 0.000000 0.000000 0.000000 
35.156250 26.718750 0.000000 0.000000 0.000000 0.000000 
37.968750 23.906250 0.000000 0.000000 0.000000 0.000000 
37.968750 26.718750 0.000000 0.000000 0.000000 0.000000 
36.562500 30.937500 0.000000 0.000000 0.000000 0.000000 
36.562500 30.937500 0.000000 0.000000 0.000000 0.000000 
35.156250 29.531250 0.000000 0.000000 0.000000 0.000000 
35.156250 32.343750 0.000000 0.000000 0.000000 0.000000 
37.968750 29.531250 0.000000 0.000000 0.000000 0.000000 
37.968750 32.343750 0.000000 0.000000 0.000000 0.000000 
42.187500 25.312500 0.000000 0.000000 0.000000 0.000000 
42.187500 25.312500 0.000000 0.000000 0.000000 0.000000 
40.781250 23.906250 0.000000 0.000000 0.000000 0.000000 
40.781250 26.718750 0.000000 0.000000 0.000000 0.000000 
43.593750 23.906250 0.000000 0.000000 0.000000 0.000000 
43.593750 26.718750 0.000000 0.000000 0.000000 0.000000 
42.187500 30.937500 0.000000 0.000000 0.000000 0.000000 
42.187500 30.937500 0.000000 0.000000 0.000000 0.000000 
40.781250 29.531250 0.000000 0.000000 0.000000 0.000000 
40.781250 32.343750 0.000000 0.000000 0.000000 0.000000 
43.593750 29.531250 0.000000 0.000000 0.000000 0.000000 
43.593750 32.343750 0.000000 0.000000 0.000000 0.000000 
36.562500 36.562500 -20.000000 0.000000 0.000000 0.000000 
35.156250 35.156250 -20.000000 0.000000 0.000000 0.000000 
35.156250 35.156250 -20.000000 0.000000 0.000000 0.000000 
35.156250 37.968750 -20.000000 0.000000 0.000000 0.000000 
35.156250 37.968750 -20.000000 0.000000 0.000000 0.000000 
37.968750 35.156250 -20.000000 0.000000 0.000000 0.000000 
37.968750 35.156250 -20.000000 0.000000 0.000000 0.000000 
37.968750 37.968750 -20.000000 0.000000 0.000000 0.000000 
37.968750 37.968750 -20.000000 0.000000 0.000000 0.000000 
36.562500 36.562500 -20.000000 0.000000 0.000000 0.000000 
36.562500 42.187500 -20.000000 0.000000 0.000000 0.000000 
35.156250 40.781250 -20.000000 0.000000 0.000000 0.000000 
35.156250 40.781250 -20.000000 0.000000 0.000000 0.000000 
35.156250 43.593750 -20.000000 0.000000 0.000000 0.000000 
35.156250 43.593750 -20.000000 0.000000 0.000000 0.000000 
37.968750 40.781250 -20.000000 0.000000 0.000000 0.000000 
37.968750 40.781250 -20.000000 0.000000 0.000000 0.000000 
37.968750 43.593750 -20.000000 0.000000 0.000000 0.000000 
37.968750 43.593750 -20.000000 0.000000 0.000000 0.000000 
36.562500 42.187500 -20.000000 0.000000 0.000000 0.000000 
42.187500 36.562500 -20.000000 0.000000 0.000000 0.000000 
40.781250 35.156250 -20.000000 0.000000 0.000000 0.000000 
40.781250 35.156250 -20.000000 0.000000 0.000000 0.000000 
40.781250 37.968750 -20.000000 0.000000 0.000000 0.000000 
40.781250 37.968750 -20.000000 0.000000 0.000000 0.000000 
43.593750 35.156250 -20.000000 0.000000 0.000000 0.000000 
43.593750 35.156250 -20.000000 0.000000 0.000000 0.000000 
43.593750 37.968750 -20.000000 0.000000 0.000000 0.000000 
43.593750 37.968750 -20.000000 0.000000 0.000000 0.000000 
42.187500 36.562500 -20.000000 0.000000 0.000000 0.000000 
42.187500 42.187500 -20.000000 0.000000 0.000000 0.000000 
40.781250 40.781250 -20.000000 0.000000 0.000000 0.000000 
40.781250 40.781250 -20.000000 0.000000 0.000000 0.000000 
40.781250 43.593750 -20.000000 0.000000 0.000000 0.000000 
40.781250 43.593750 -20.000000 0.000000 0.000000 0.000000 
43.593750 40.781250 -20.000000 0.000000 0.000000 0.000000 
43.593750 40.781250 -20.000000 0.000000 0.000000 0.000000 
43.593750 43.593750 -20.000000 0.000000 0.000000 0.000000 
43.593750 43.593750 -20.000000 0.000000 0.000000 0.000000 
42.187500 42.187500 -20.000000 0.000000 0.000000 0.000000 
36.562500 36.562500 0.000000 0.000000 0.000000 0.000000 
36.562500 36.562500 0.000000 0.000000 0.000000 0.000000 
35.156250 35.156250 0.000000 0.000000 0.000000 0.000000 
35.156250 37.968750 0.000000 0.000000 0.000000 0.000000 
37.968750 35.156250 0.000000 0.000000 0.000000 0.000000 
37.968750 37.968750 0.000000 0.000000 0.000000 0.000000 
36.562500 42.187500 0.000000 0.000000 0.000000 0.000000 
36.562500 42.187500 0.000000 0.000000 0.000000 0.000000 
35.156250 40.781250 0.000000 0.000000 0.000000 0.000000 
35.156250 43.593750 0.000000 0.000000 0.000000 0.000000 
37.968750 40.781250 0.000000 0.000000 0.000000 0.000000 
37.968750 43.593750 0.000000 0.000000 0.000000 0.000000 
42.187500 36.562500 0.000000 0.000000 0.000000 0.000000 
42.187500 36.562500 0.000000 0.000000 0.000000 0.000000 
40.781250 35.156250 0.000000 0.000000 0.000000 0.000000 
40.781250 37.968750 0.000000 0.000000 0.000000 0.000000 
43.593750 35.156250 0.000000 0.000000 0.000000 0.000000 
43.593750 37.968750 0.000000 0.000000 0.000000 0.000000 
42.187500 42.187500 0.000000 0.000000 0.000000 0.000000 
42.187500 42.187500 0.000000 0.000000 0.000000 0.000000 
40.781250 40.781250 0.000000 0.000000 0.000000 0.000000 
40.781250 43.593750 0.000000 0.000000 0.000000 0.000000 
43.593750 40.781250 0.000000 0.000000 0.000000 0.000000 
43.593750 43.593750 0.000000 0.000000 0.000000 0.000000 
25.312500 25.312500 0.000000 0.000000 0.000000 0.000000 
23.906250 25.000000 0.000000 0.000000 0.000000 0.000000 
23.906250 25.000000 0.781250 0.000000 0.000000 0.000000 
23.906250 26.718750 0.000000 0.000000 0.000000 0.000000 
23.906250 26.718750 0.000000 0.000000 0.000000 0.000000 
26.718750 23.906250 0.000000 0.000000 0.000000 0.000000 
26.718750 23.906250 0.000000 0.000000 0.000000 0.000000 
26.718750 26.718750 0.000000 0.000000 0.000000 0.000000 
26.718750 26.718750 0.000000 0.000000 0.000000 0.000000 
25.000000 25.000000 4.062500 0.000000 0.000000 0.000000 
23.906250 25.000000 2.968750 0.000000 0.000000 0.000000 
23.906250 25.000000 5.156250 0.000000 0.000000 0.000000 
23.906250 25.000000 2.968750 0.000000 0.000000 0.000000 
23.906250 25.000000 5.156250 0.000000 0.000000 0.000000 
25.000000 23.906250 2.968750 0.000000 0.000000 0.000000 
25.000000 23.906250 5.156250 0.000000 0.000000 0.000000 
25.000000 25.000000 2.968750 0.000000 0.000000 0.000000 
25.000000 25.000000 5.156250 0.000000 0.000000 0.000000 
25.312500 30.937500 0.000000 0.000000 0.000000 0.000000 
23.906250 29.531250 0.000000 0.000000 0.000000 0.000000 
23.906250 29.531250 0.000000 0.000000 0.000000 0.000000 
23.906250 32.343750 0.000000 0.000000 0.000000 0.000000 
23.906250 32.343750 0.000000 0.000000 0.000000 0.000000 
26.718750 29.531250 0.000000 0.000000 0.000000 0.000000 
26.718750 29.531250 0.000000 0.000000 0.000000 0.000000 
26.718750 32.343750 0.000000 0.000000 0.000000 0.000000 
26.718750 32.343750 0.000000 0.000000 0.000000 0.000000 
25.312500 30.937500 0.000000 0.000000 0.000000 0.000000 
23.906250 29.531250 0.000000 0.000000 0.000000 0.000000 
23.906250 25.000000 5.156250 0.000000 0.000000 0.000000 
23.906250 32.343750 0.000000 0.000000 0.000000 0.000000 
26.718750 29.531250 0.000000 0.000000 0.000000 0.000000 
26.718750 32.343750 0.000000 0.000000 0.000000 0.000000 
30.937500 25.312500 0.000000 0.000000 0.000000 0.000000 
29.531250 23.906250 0.000000 0.000000 0.000000 0.000000 
29.531250 23.906250 0.000000 0.000000 0.000000 0.000000 
29.531250 26.718750 0.000000 0.000000 0.000000 0.000000 
29.531250 26.718750 0.000000 0.000000 0.000000 0.000000 
32.343750 23.906250 0.000000 0.000000 0.000000 0.000000 
32.343750 23.906250 0.000000 0.000000 0.000000 0.000000 
32.343750 26.718750 0.000000 0.000000 0.000000 0.000000 
32.343750 26.718750 0.000000 0.000000 0.000000 0.000000 
30.937500 25.312500 0.000000 0.000000 0.000000 0.000000 
29.531250 23.906250 0.000000 0.000000 0.000000 0.000000 
25.000000 23.906250 5.156250 0.000000 0.000000 0.000000 
29.531250 26.718750 0.000000 0.000000 0.000000 0.000000 
32.343750 23.906250 0.000000 0.000000 0.000000 0.000000 
32.343750 26.718750 0.000000 0.000000 0.000000 0.000000 
30.937500 30.937500 0.000000 0.000000 0.000000 0.000000 
29.531250 29.531250 0.000000 0.000000 0.000000 0.000000 
29.531250 29.531250 0.000000 0.000000 0.000000 0.000000 
29.531250 32.343750 0.000000 0.000000 0.000000 0.000000 
29.531250 32.343750 0.000000 0.000000 0.000000 0.000000 
32.343750 29.531250 0.000000 0.000000 0.000000 0.000000 
32.343750 29.531250 0.000000 0.000000 0.000000 0.000000 
32.343750 32.343750 0.000000 0.000000 0.000000 0.000000 
32.343750 32.343750 0.000000 0.000000 0.000000 0.000000 
30.937500 30.937500 0.000000 0.000000 0.000000 0.000000 
29.531250 29.531250 0.000000 0.000000 0.000000 0.000000 
29.531250 32.343750 0.000000 0.000000 0.000000 0.000000 
32.343750 29.531250 0.000000 0.000000 0.000000 0.000000 
32.343750 32.343750 0.000000 0.000000 0.000000 0.000000 
25.000000 25.000000 8.437500 0.000000 0.000000 0.000000 
23.906250 25.000000 7.343750 0.000000 0.000000 0.000000 
23.906250 25.000000 9.531250 0.000000 0.000000 0.000000 
23.906250 25.000000 7.343750 0.000000 0.000000 0.000000 
23.906250 25.000000 9.531250 0.000000 0.000000 0.000000 
25.000000 23.906250 7.343750 0.000000 0.000000 0.000000 
25.000000 23.906250 9.531250 0.000000 0.000000 0.000000 
25.000000 25.000000 7.343750 0.000000 0.000000 0.000000 
25.000000 25.000000 9.531250 0.000000 0.000000 0.000000 
25.000000 25.000000 12.812500 0.000000 0.000000 0.000000 
23.906250 25.000000 11.718750 0.000000 0.000000 0.000000 
23.906250 25.000000 13.906250 0.000000 0.000000 0.000000 
23.906250 25.000000 11.718750 0.000000 0.000000 0.000000 
23.906250 25.000000 13.906250 0.000000 0.000000 0.000000 
25.000000 23.906250 11.718750 0.000000 0.000000 0.000000 
25.000000 23.906250 13.906250 0.000000 0.000000 0.000000 
25.000000 25.000000 11.718750 0.000000 0.000000 0.000000 
25.000000 25.000000 13.906249 0.000000 0.000000 0.000000 
25.000000 25.000000 8.437500 0.000000 0.000000 0.000000 
23.906250 25.000000 7.343750 0.000000 0.000000 0.000000 
23.906250 25.000000 9.531250 0.000000 0.000000 0.000000 
25.000000 25.000000 12.812500 0.000000 0.000000 0.000000 
23.906250 25.000000 11.718750 0.000000 0.000000 0.000000 
23.906250 25.000000 13.906250 0.000000 0.000000 0.000000 
25.000000 25.000000 8.437500 0.000000 0.000000 0.000000 
25.000000 23.906250 7.343750 0.000000 0.000000 0.000000 
25.000000 23.906250 9.531250 0.000000 0.000000 0.000000 
25.000000 25.000000 12.812500 0.000000 0.000000 0.000000 
25.000000 23.906250 11.718750 0.000000 0.000000 0.000000 
25.000000 23.906250 13.906250 0.000000 0.000000 0.000000 
25.000000 25.000000 8.437500 0.000000 0.000000 0.000000 
25.000000 25.000000 12.812500 0.000000 0.000000 0.000000 
25.312500 36.562500 0.000000 0.000000 0.000000 0.000000 
23.906250 35.156250 0.000000 0.000000 0.000000 0.000000 
23.906250 35.156250 0.000000 0.000000 0.000000 0.000000 
23.906250 37.968750 0.000000 0.000000 0.000000 0.000000 
23.906250 37.968750 0.000000 0.000000 0.000000 0.000000 
26.718750 35.156250 0.000000 0.000000 0.000000 0.000000 
26.718750 35.156250 0.000000 0.000000 0.000000 0.000000 
26.718750 37.968750 0.000000 0.000000 0.000000 0.000000 
26.718750 37.968750 0.000000 0.000000 0.000000 0.000000 
25.312500 36.562500 0.000000 0.000000 0.000000 0.000000 
23.906250 35.156250 0.000000 0.000000 0.000000 0.000000 
23.906250 37.968750 0.000000 0.000000 0.000000 0.000000 
26.718750 35.156250 0.000000 0.000000 0.000000 0.000000 
26.718750 37.968750 0.000000 0.000000 0.000000 0.000000 
25.312500 42.187500 0.000000 0.000000 0.000000 0.000000 
23.906250 40.781250 0.000000 0.000000 0.000000 0.000000 
23.906250 40.781250 0.000000 0.000000 0.000000 0.000000 
23.906250 43.593750 0.000000 0.000000 0.000000 0.000000 
23.906250 43.593750 0.000000 0.000000 0.000000 0.000000 
26.718750 40.781250 0.000000 0.000000 0.000000 0.000000 
26.718750 40.781250 0.000000 0.000000 0.000000 0.000000 
26.718750 43.593750 0.000000 0.000000 0.000000 0.000000 
26.718750 43.593750 0.000000 0.000000 0.000000 0.000000 
25.312500 42.187500 0.000000 0.000000 0.000000 0.000000 
23.906250 40.781250 0.000000 0.000000 0.000000 0.000000 
23.906250 43.593750 0.000000 0.000000 0.000000 0.000000 
26.718750 40.781250 0.000000 0.000000 0.000000 0.000000 
26.718750 43.593750 0.000000 0.000000 0.000000 0.000000 
30.937500 36.562500 0.000000 0.000000 0.000000 0.000000 
29.531250 35.156250 0.000000 0.000000 0.000000 0.000000 
29.531250 35.156250 0.000000 0.000000 0.000000 0.000000 
29.531250 37.968750 0.000000 0.000000 0.000000 0.000000 
29.531250 37.968750 0.000000 0.000000 0.000000 0.000000 
32.343750 35.156250 0.000000 0.000000 0.000000 0.000000 
32.343750 35.156250 0.000000 0.000000 0.000000 0.000000 
32.343750 37.968750 0.000000 0.000000 0.000000 0.000000 
32.343750 37.968750 0.000000 0.000000 0.000000 0.000000 
30.937500 36.562500 0.000000 0.000000 0.000000 0.000000 
29.531250 35.156250 0.000000 0.000000 0.000000 0.000000 
29.531250 37.968750 0.000000 0.000000 0.000000 0.000000 
32.343750 35.156250 0.000000 0.000000 0.000000 0.000000 
32.343750 37.968750 0.000000 0.000000 0.000000 0.000000 
30.937500 42.187500 0.000000 0.000000 0.000000 0.000000 
29.531250 40.781250 0.000000 0.000000 0.000000 0.000000 
29.531250 40.781250 0.000000 0.000000 0.000000 0.000000 
29.531250 43.593750 0.000000 0.000000 0.000000 0.000000 
29.531250 43.593750 0.000000 0.000000 0.000000 0.000000 
32.343750 40.781250 0.000000 0.000000 0.000000 0.000000 
32.343750 40.781250 0.000000 0.000000 0.000000 0.000000 
32.343750 43.593750 0.000000 0.000000 0.000000 0.000000 
32.343750 43.593750 0.000000 0.000000 0.000000 0.000000 
30.937500 42.187500 0.000000 0.000000 0.000000 0.000000 
29.531250 40.781250 0.000000 0.000000 0.000000 0.000000 
29.531250 43.593750 0.000000 0.000000 0.000000 0.000000 
32.343750 40.781250 0.000000 0.000000 0.000000 0.000000 
32.343750 43.593750 0.000000 0.000000 0.000000 0.000000 
25.312500 36.562500 0.000000 0.000000 0.000000 0.000000 
25.312500 42.187500 0.000000 0.000000 0.000000 0.000000 
30.937500 36.562500 0.000000 0.000000 0.000000 0.000000 
30.937500 42.187500 0.000000 0.000000 0.000000 0.000000 
36.562500 25.312500 0.000000 0.000000 0.000000 0.000000 
35.156250 23.906250 0.000000 0.000000 0.000000 0.000000 
35.156250 23.906250 0.000000 0.000000 0.000000 0.000000 
35.156250 26.718750 0.000000 0.000000 0.000000 0.000000 
35.156250 26.718750 0.000000 0.000000 0.000000 0.000000 
37.968750 23.906250 0.000000 0.000000 0.000000 0.000000 
37.968750 23.906250 0.000000 0.000000 0.000000 0.000000 
37.968750 26.718750 0.000000 0.000000 0.000000 0.000000 
37.968750 26.718750 0.000000 0.000000 0.000000 0.000000 
36.562500 25.312500 0.000000 0.000000 0.000000 0.000000 
35.156250 23.906250 0.000000 0.000000 0.000000 0.000000 
35.156250 26.718750 0.000000 0.000000 0.000000 0.000000 
37.968750 23.906250 0.000000 0.000000 0.000000 0.000000 
37.968750 26.718750 0.000000 0.000000 0.000000 0.000000 
36.562500 30.937500 0.000000 0.000000 0.000000 0.000000 
35.156250 29.531250 0.000000 0.000000 0.000000 0.000000 
35.156250 29.531250 0.000000 0.000000 0.000000 0.000000 
35.156250 32.343750 0.000000 0.000000 0.000000 0.000000 
35.156250 32.343750 0.000000 0.000000 0.000000 0.000000 
37.968750 29.531250 0.000000 0.000000 0.000000 0.000000 
37.968750 29.531250 0.000000 0.000000 0.000000 0.000000 
37.968750 32.343750 0.000000 0.000000 0.000000 0.000000 
37.968750 32.343750 0.000000 0.000000 0.000000 0.000000 
36.562500 30.937500 0.000000 0.000000 0.000000 0.000000 
35.156250 29.531250 0.000000 0.000000 0.000000 0.000000 
35.156250 32.343750 0.000000 0.000000 0.000000 0.000000 
37.968750 29.531250 0.000000 0.000000 0.000000 0.000000 
37.968750 32.343750 0.000000 0.000000 0.000000 0.000000 
42.187500 25.312500 0.000000 0.000000 0.000000 0.000000 
40.781250 23.906250 0.000000 0.000000 0.000000 0.000000 
40.781250 23.906250 0.000000 0.000000 0.000000 0.000000 
40.781250 26.718750 0.000000 0.000000 0.000000 0.000000 
40.781250 26.718750 0.000000 0.000000 0.000000 0.000000 
43.593750 23.906250 0.000000 0.000000 0.000000 0.000000 
43.593750 23.906250 0.000000 0.000000 0.000000 0.000000 
43.593750 26.718750 0.000000 0.000000 0.000000 0.000000 
43.593750 26.718750 0.000000 0.000000 0.000000 0.000000 
42.187500 25.312500 0.000000 0.000000 0.000000 0.000000 
40.781250 23.906250 0.000000 0.000000 0.000000 0.000000 
40.781250 26.718750 0.000000 0.000000 0.000000 0.000000 
43.593750 23.906250 0.000000 0.000000 0.000000 0.000000 
43.593750 26.718750 0.000000 0.000000 0.000000 0.000000 
42.187500 30.937500 0.000000 0.000000 0.000000 0.000000 
40.781250 29.531250 0.000000 0.000000 0.000000 0.000000 
40.781250 29.531250 0.000000 0.000000 0.000000 0.000000 
40.781250 32.343750 0.000000 0.000000 0.000000 0.000000 
40.781250 32.343750 0.000000 0.000000 0.000000 0.000000 
43.593750 29.531250 0.000000 0.000000 0.000000 0.000000 
43.593750 29.531250 0.000000 0.000000 0.000000 0.000000 
43.593750 32.343750 0.000000 0.000000 0.000000 0.000000 
43.593750 32.343750 0.000000 0.000000 0.000000 0.000000 
42.187500 30.937500 0.000000 0.000000 0.000000 0.000000 
40.781250 29.531250 0.000000 0.000000 0.000000 0.000000 
40.781250 32.343750 0.000000 0.000000 0.000000 0.000000 
43.593750 29.531250 0.000000 0.000000 0.000000 0.000000 
43.593750 32.343750 0.000000 0.000000 0.000000 0.000000 
36.562500 25.312500 0.000000 0.000000 0.000000 0.000000 
36.562500 30.937500 0.000000 0.000000 0.000000 0.000000 
42.187500 25.312500 0.000000 0.000000 0.000000 0.000000 
42.187500 30.937500 0.000000 0.000000 0.000000 0.000000 
36.562500 36.562500 0.000000 0.000000 0.000000 0.000000 
35.156250 35.156250 0.000000 0.000000 0.000000 0.000000 
35.156250 35.156250 0.000000 0.000000 0.000000 0.000000 
35.156250 37.968750 0.000000 0.000000 0.000000 0.000000 
35.156250 37.968750 0.000000 0.000000 0.000000 0.000000 
37.968750 35.156250 0.000000 0.000000 0.000000 0.000000 
37.968750 35.156250 0.000000 0.000000 0.000000 0.000000 
37.968750 37.968750 0.000000 0.000000 0.000000 0.000000 
37.968750 37.968750 0.000000 0.000000 0.000000 0.000000 
36.562500 36.562500 0.000000 0.000000 0.000000 0.000000 
35.156250 35.156250 0.000000 0.000000 0.000000 0.000000 
35.156250 37.968750 0.000000 0.000000 0.000000 0.000000 
37.968750 35.156250 0.000000 0.000000 0.000000 0.000000 
37.968750 37.968750 0.000000 0.000000 0.000000 0.000000 
36.562500 42.187500 0.000000 0.000000 0.000000 0.000000 
35.156250 40.781250 0.000000 0.000000 0.000000 0.000000 
35.156250 40.781250 0.000000 0.000000 0.000000 0.000000 
35.156250 43.593750 0.000000 0.000000 0.000000 0.000000 
35.156250 43.593750 0.000000 0.000000 0.000000 0.000000 
37.968750 40.781250 0.000000 0.000000 0.000000 0.000000 
37.968750 40.781250 0.000000 0.000000 0.000000 0.000000 
37.968750 43.593750 0.000000 0.000000 0.000000 0.000000 
37.968750 43.593750 0.000000 0.000000 0.000000 0.000000 
36.562500 42.187500 0.000000 0.000000 0.000000 0.000000 
35.156250 40.781250 0.000000 0.000000 0.000000 0.000000 
35.156250 43.593750 0.000000 0.000000 0.000000 0.000000 
37.968750 40.781250 0.000000 0.000000 0.000000 0.000000 
37.968750 43.593750 0.000000 0.000000 0.000000 0.000000 
42.187500 36.562500 0.000000 0.000000 0.000000 0.000000 
40.781250 35.156250 0.000000 0.000000 0.000000 0.000000 
40.781250 35.156250 0.000000 0.000000 0.000000 0.000000 
40.781250 37.968750 0.000000 0.000000 0.000000 0.000000 
40.781250 37.968750 0.000000 0.000000 0.000000 0.000000 
43.593750 35.156250 0.000000 0.000000 0.000000 0.000000 
43.593750 35.156250 0.000000 0.000000 0.000000 0.000000 
43.593750 37.968750 0.000000 0.000000 0.000000 0.000000 
43.593750 37.968750 0.000000 0.000000 0.000000 0.000000 
42.187500 36.562500 0.000000 0.000000 0.000000 0.000000 
40.781250 35.156250 0.000000 0.000000 0.000000 0.000000 
40.781250 37.968750 0.000000 0.000000 0.000000 0.000000 
43.593750 35.156250 0.000000 0.000000 0.000000 0.000000 
43.593750 37.968750 0.000000 0.000000 0.000000 0.000000 
42.187500 42.187500 0.000000 0.000000 0.000000 0.000000 
40.781250 40.781250 0.000000 0.000000 0.000000 0.000000 
40.781250 40.781250 0.000000 0.000000 0.000000 0.000000 
40.781250 43.593750 0.000000 0.000000 0.000000 0.000000 
40.781250 43.593750 0.000000 0.000000 0.000000 0.000000 
43.593750 40.781250 0.000000 0.000000 0.000000 0.000000 
43.593750 40.781250 0.000000 0.000000 0.000000 0.000000 
43.593750 43.593750 0.000000 0.000000 0.000000 0.000000 
43.593750 43.593750 0.000000 0.000000 0.000000 0.000000 
42.187500 42.187500 0.000000 0.000000 0.000000 0.000000 
40.781250 40.781250 0.000000 0.000000 0.000000 0.000000 
40.781250 43.593750 0.000000 0.000000 0.000000 0.000000 
43.593750 40.781250 0.000000 0.000000 0.000000 0.000000 
43.593750 43.593750 0.000000 0.000000 0.000000 0.000000 
36.562500 36.562500 0.000000 0.000000 0.000000 0.000000 
36.562500 42.187500 0.000000 0.000000 0.000000 0.000000 
42.187500 36.562500 0.000000 0.000000 0.000000 0.000000 
42.187500 42.187500 0.000000 0.000000 0.000000 0.000000 
6.094144 7.723827 17.187500 0.000000 0.000000 0.000000 
6.416740 7.508275 16.093750 0.000000 0.000000 0.000000 
6.416740 7.508275 18.281250 0.000000 0.000000 0.000000 
6.094144 7.723827 21.562500 0.000000 0.000000 0.000000 
6.416740 7.508275 20.468750 0.000000 0.000000 0.000000 
6.416740 7.508275 22.656250 0.000000 0.000000 0.000000 
3.004427 9.402382 17.187500 0.000000 0.000000 0.000000 
1.920774 9.617934 16.093750 0.000000 0.000000 0.000000 
1.920774 9.617934 18.281250 0.000000 0.000000 0.000000 
1.382625 9.724978 16.093750 0.000000 0.000000 0.000000 
1.382625 9.724978 18.281250 0.000000 0.000000 0.000000 
5.117535 8.376377 16.093750 0.000000 0.000000 0.000000 
5.117535 8.376377 18.281250 0.000000 0.000000 0.000000 
3.826834 9.238795 16.093750 0.000000 0.000000 0.000000 
3.826834 9.238795 18.281250 0.000000 0.000000 0.000000 
3.004427 9.402382 21.562500 0.000000 0.000000 0.000000 
1.920774 9.617934 20.468750 0.000000 0.000000 0.000000 
1.920774 9.617934 22.656250 0.000000 0.000000 0.000000 
1.382625 9.724978 20.468750 0.000000 0.000000 0.000000 
1.382625 9.724978 22.656250 0.000000 0.000000 0.000000 
5.117535 8.376377 20.468750 0.000000 0.000000 0.000000 
5.117535 8.376377 22.656250 0.000000 0.000000 0.000000 
3.826834 9.238795 20.468750 0.000000 0.000000 0.000000 
3.826834 9.238795 22.656250 0.000000 0.000000 0.000000 
9.402382 3.004427 17.187500 0.000000 0.000000 0.000000 
9.617934 1.920774 16.093750 0.000000 0.000000 0.000000 
9.617934 1.920774 18.281250 0.000000 0.000000 0.000000 
8.376377 5.117535 16.093750 0.000000 0.000000 0.000000 
8.376377 5.117535 18.281250 0.000000 0.000000 0.000000 
9.724978 1.382625 16.093750 0.000000 0.000000 0.000000 
9.724978 1.382625 18.281250 0.000000 0.000000 0.000000 
9.238795 3.826834 16.093750 0.000000 0.000000 0.000000 
9.238795 3.826834 18.281250 0.000000 0.000000 0.000000 
9.402382 3.004427 21.562500 0.000000 0.000000 0.000000 
9.617934 1.920774 20.468750 0.000000 0.000000 0.000000 
9.617934 1.920774 22.656250 0.000000 0.000000 0.000000 
8.376377 5.117535 20.468750 0.000000 0.000000 0.000000 
8.376377 5.117535 22.656250 0.000000 0.000000 0.000000 
9.724978 1.382625 20.468750 0.000000 0.000000 0.000000 
9.724978 1.382625 22.656250 0.000000 0.000000 0.000000 
9.238795 3.826834 20.468750 0.000000 0.000000 0.000000 
9.238795 3.826834 22.656250 0.000000 0.000000 0.000000 
7.071068 7.071068 17.187500 0.000000 0.000000 0.000000 
7.061934 7.077171 16.093750 0.000000 0.000000 0.000000 
7.061934 7.077171 18.281250 0.000000 0.000000 0.000000 
5.762728 7.945272 16.093750 0.000000 0.000000 0.000000 
5.762728 7.945272 18.281250 0.000000 0.000000 0.000000 
7.945272 5.762728 16.093750 0.000000 0.000000 0.000000 
7.945272 5.762728 18.281250 0.000000 0.000000 0.000000 
7.071068 7.071068 16.093750 0.000000 0.000000 0.000000 
7.071068 7.071068 18.281250 0.000000 0.000000 0.000000 
7.071068 7.071068 21.562500 0.000000 0.000000 0.000000 
7.061934 7.077171 20.468750 0.000000 0.000000 0.000000 
7.061934 7.077171 22.656250 0.000000 0.000000 0.000000 
5.762728 7.945272 20.468750 0.000000 0.000000 0.000000 
5.762728 7.945272 22.656250 0.000000 0.000000 0.000000 
7.945272 5.762728 20.468750 0.000000 0.000000 0.000000 
7.945272 5.762728 22.656250 0.000000 0.000000 0.000000 
7.071068 7.071068 20.468750 0.000000 0.000000 0.000000 
7.071068 7.071068 22.656250 0.000000 0.000000 0.000000 
6.094144 7.723827 25.937500 0.000000 0.000000 0.000000 
6.416740 7.508275 24.843750 0.000000 0.000000 0.000000 
7.508275 6.416740 27.031250 0.000000 0.000000 0.000000 
7.723827 6.094144 30.312500 0.000000 0.000000 0.000000 
7.508275 6.416740 29.218750 0.000000 0.000000 0.000000 
7.508275 6.416740 31.406250 0.000000 0.000000 0.000000 
3.004427 9.402382 25.937500 0.000000 0.000000 0.000000 
1.920774 9.617934 24.843750 0.000000 0.000000 0.000000 
1.920774 9.617934 27.031250 0.000000 0.000000 0.000000 
1.382625 9.724978 24.843750 0.000000 0.000000 0.000000 
1.382625 9.724978 27.031250 0.000000 0.000000 0.000000 
5.117535 8.376377 24.843750 0.000000 0.000000 0.000000 
5.117535 8.376377 27.031250 0.000000 0.000000 0.000000 
3.826834 9.238795 24.843750 0.000000 0.000000 0.000000 
3.826834 9.238795 27.031250 0.000000 0.000000 0.000000 
3.004427 9.402382 30.312500 0.000000 0.000000 0.000000 
1.920774 9.617934 29.218750 0.000000 0.000000 0.000000 
1.920774 9.617934 31.406250 0.000000 0.000000 0.000000 
1.382625 9.724978 29.218750 0.000000 0.000000 0.000000 
1.382625 9.724978 31.406250 0.000000 0.000000 0.000000 
5.117535 8.376377 29.218750 0.000000 0.000000 0.000000 
5.117535 8.376377 31.406250 0.000000 0.000000 0.000000 
3.826834 9.238795 29.218750 0.000000 0.000000 0.000000 
3.826834 9.238795 31.406250 0.000000 0.000000 0.000000 
9.402382 3.004427 25.937500 0.000000 0.000000 0.000000 
9.617934 1.920774 24.843750 0.000000 0.000000 0.000000 
9.617934 1.920774 27.031250 0.000000 0.000000 0.000000 
8.376377 5.117535 24.843750 0.000000 0.000000 0.000000 
8.376377 5.117535 27.031250 0.000000 0.000000 0.000000 
9.724978 1.382625 24.843750 0.000000 0.000000 0.000000 
9.724978 1.382625 27.031250 0.000000 0.000000 0.000000 
9.238795 3.826834 24.843750 0.000000 0.000000 0.000000 
9.238795 3.826834 27.031250 0.000000 0.000000 0.000000 
9.402382 3.004427 30.312500 0.000000 0.000000 0.000000 
9.617934 1.920774 29.218750 0.000000 0.000000 0.000000 
9.617934 1.920774 31.406250 0.000000 0.000000 0.000000 
8.376377 5.117535 29.218750 0.000000 0.000000 0.000000 
8.376377 5.117535 31.406250 0.000000 0.000000 0.000000 
9.724978 1.382625 29.218750 0.000000 0.000000 0.000000 
9.724978 1.382625 31.406250 0.000000 0.000000 0.000000 
9.238795 3.826834 29.218750 0.000000 0.000000 0.000000 
9.238795 3.826834 31.406250 0.000000 0.000000 0.000000 
7.071068 7.071068 25.937500 0.000000 0.000000 0.000000 
7.061934 7.077171 24.843750 0.000000 0.000000 0.000000 
7.077171 7.061934 27.031250 0.000000 0.000000 0.000000 
5.762728 7.945272 24.843750 0.000000 0.000000 0.000000 
5.762728 7.945272 27.031250 0.000000 0.000000 0.000000 
7.945272 5.762728 24.843750 0.000000 0.000000 0.000000 
7.945272 5.762728 27.031250 0.000000 0.000000 0.000000 
7.071068 7.071068 24.843750 0.000000 0.000000 0.000000 
7.071068 7.071068 27.031250 0.000000 0.000000 0.000000 
7.071068 7.071068 30.312500 0.000000 0.000000 0.000000 
7.077171 7.061934 29.218750 0.000000 0.000000 0.000000 
7.077171 7.061934 31.406250 0.000000 0.000000 0.000000 
5.762728 7.945272 29.218750 0.000000 0.000000 0.000000 
5.762728 7.945272 31.406250 0.000000 0.000000 0.000000 
7.945272 5.762728 29.218750 0.000000 0.000000 0.000000 
7.945272 5.762728 31.406250 0.000000 0.000000 0.000000 
7.071068 7.071068 29.218750 0.000000 0.000000 0.000000 
7.071068 7.071068 31.406250 0.000000 0.000000 0.000000 
1.928130 9.616470 17.187500 0.000000 0.000000 0.000000 
0.844476 9.832024 16.093750 0.000000 0.000000 0.000000 
0.844476 9.832024 18.281250 0.000000 0.000000 0.000000 
3.549932 9.293875 16.093750 0.000000 0.000000 0.000000 
3.549932 9.293875 18.281250 0.000000 0.000000 0.000000 
1.928130 9.616470 21.562500 0.000000 0.000000 0.000000 
0.844476 9.832024 20.468750 0.000000 0.000000 0.000000 
0.844476 9.832024 22.656250 0.000000 0.000000 0.000000 
3.549932 9.293875 20.468750 0.000000 0.000000 0.000000 
3.549932 9.293875 22.656250 0.000000 0.000000 0.000000 
2.812500 25.000000 17.187500 0.000000 0.000000 0.000000 
1.406250 25.000000 16.093750 0.000000 0.000000 0.000000 
1.406250 25.000000 18.281250 0.000000 0.000000 0.000000 
4.218750 25.000000 16.093750 0.000000 0.000000 0.000000 
4.218750 25.000000 18.281250 0.000000 0.000000 0.000000 
2.812500 25.000000 21.562500 0.000000 0.000000 0.000000 
1.406250 25.000000 20.468750 0.000000 0.000000 0.000000 
1.406250 25.000000 22.656250 0.000000 0.000000 0.000000 
4.218750 25.000000 20.468750 0.000000 0.000000 0.000000 
4.218750 25.000000 22.656250 0.000000 0.000000 0.000000 
4.786119 8.597822 17.187500 0.000000 0.000000 0.000000 
4.786119 8.597822 21.562500 0.000000 0.000000 0.000000 
8.437500 25.000000 17.187500 0.000000 0.000000 0.000000 
7.031250 25.000000 16.093750 0.000000 0.000000 0.000000 
7.031250 25.000000 18.281250 0.000000 0.000000 0.000000 
9.843750 25.000000 16.093750 0.000000 0.000000 0.000000 
9.843750 25.000000 18.281250 0.000000 0.000000 0.000000 
8.437500 25.000000 21.562500 0.000000 0.000000 0.000000 
7.031250 25.000000 20.468750 0.000000 0.000000 0.000000 
7.031250 25.000000 22.656250 0.000000 0.000000 0.000000 
9.843750 25.000000 20.468750 0.000000 0.000000 0.000000 
9.843750 25.000000 22.656250 0.000000 0.000000 0.000000 
1.928130 9.616470 25.937500 0.000000 0.000000 0.000000 
0.844476 9.832024 24.843750 0.000000 0.000000 0.000000 
0.844476 9.832024 27.031250 0.000000 0.000000 0.000000 
3.549932 9.293875 24.843750 0.000000 0.000000 0.000000 
3.549932 9.293875 27.031250 0.000000 0.000000 0.000000 
1.928130 9.616470 30.312500 0.000000 0.000000 0.000000 
0.844476 9.832024 29.218750 0.000000 0.000000 0.000000 
0.844476 9.832024 31.406250 0.000000 0.000000 0.000000 
3.549932 9.293875 29.218750 0.000000 0.000000 0.000000 
3.549932 9.293875 31.406250 0.000000 0.000000 0.000000 
2.812500 25.000000 25.937500 0.000000 0.000000 0.000000 
1.406250 25.000000 24.843750 0.000000 0.000000 0.000000 
1.406250 25.000000 27.031250 0.000000 0.000000 0.000000 
4.218750 25.000000 24.843750 0.000000 0.000000 0.000000 
4.218750 25.000000 27.031250 0.000000 0.000000 0.000000 
2.812500 25.000000 30.312500 0.000000 0.000000 0.000000 
1.406250 25.000000 29.218750 0.000000 0.000000 0.000000 
1.406250 25.000000 31.406250 0.000000 0.000000 0.000000 
4.218750 25.000000 29.218750 0.000000 0.000000 0.000000 
4.218750 25.000000 31.406250 0.000000 0.000000 0.000000 
4.786119 8.597822 25.937500 0.000000 0.000000 0.000000 
4.786119 8.597822 30.312500 0.000000 0.000000 0.000000 
8.437500 25.000000 25.937500 0.000000 0.000000 0.000000 
7.031250 25.000000 24.843750 0.000000 0.000000 0.000000 
7.031250 25.000000 27.031250 0.000000 0.000000 0.000000 
9.843750 25.000000 24.843750 0.000000 0.000000 0.000000 
9.843750 25.000000 27.031250 0.000000 0.000000 0.000000 
8.437500 25.000000 30.312500 0.000000 0.000000 0.000000 
7.031250 25.000000 29.218750 0.000000 0.000000 0.000000 
7.031250 25.000000 31.406250 0.000000 0.000000 0.000000 
9.843750 25.000000 29.218750 0.000000 0.000000 0.000000 
9.843750 25.000000 31.406250 0.000000 0.000000 0.000000 
9.616470 1.928130 17.187500 0.000000 0.000000 0.000000 
9.832024 0.844476 16.093750 0.000000 0.000000 0.000000 
9.832024 0.844476 18.281250 0.000000 0.000000 0.000000 
9.293875 3.549932 16.093750 0.000000 0.000000 0.000000 
9.293875 3.549932 18.281250 0.000000 0.000000 0.000000 
9.616470 1.928130 21.562500 0.000000 0.000000 0.000000 
9.832024 0.844476 20.468750 0.000000 0.000000 0.000000 
9.832024 0.844476 22.656250 0.000000 0.000000 0.000000 
9.293875 3.549932 20.468750 0.000000 0.000000 0.000000 
9.293875 3.549932 22.656250 0.000000 0.000000 0.000000 
8.597822 4.786119 17.187500 0.000000 0.000000 0.000000 
8.597822 4.786119 21.562500 0.000000 0.000000 0.000000 
25.000000 2.812500 17.187500 0.000000 0.000000 0.000000 
25.000000 1.406250 16.093750 0.000000 0.000000 0.000000 
25.000000 1.406250 18.281250 0.000000 0.000000 0.000000 
25.000000 4.218750 16.093750 0.000000 0.000000 0.000000 
25.000000 4.218750 18.281250 0.000000 0.000000 0.000000 
25.000000 2.812500 21.562500 0.000000 0.000000 0.000000 
25.000000 1.406250 20.468750 0.000000 0.000000 0.000000 
25.000000 1.406250 22.656250 0.000000 0.000000 0.000000 
25.000000 4.218750 20.468750 0.000000 0.000000 0.000000 
25.000000 4.218750 22.656250 0.000000 0.000000 0.000000 
25.000000 8.437500 17.187500 0.000000 0.000000 0.000000 
25.000000 7.031250 16.093750 0.000000 0.000000 0.000000 
25.000000 7.031250 18.281250 0.000000 0.000000 0.000000 
25.000000 9.843750 16.093750 0.000000 0.000000 0.000000 
25.000000 9.843750 18.281250 0.000000 0.000000 0.000000 
25.000000 8.437500 21.562500 0.000000 0.000000 0.000000 
25.000000 7.031250 20.468750 0.000000 0.000000 0.000000 
25.000000 7.031250 22.656250 0.000000 0.000000 0.000000 
25.000000 9.843750 20.468750 0.000000 0.000000 0.000000 
25.000000 9.843750 22.656250 0.000000 0.000000 0.000000 
9.616470 1.928130 25.937500 0.000000 0.000000 0.000000 
9.832024 0.844476 24.843750 0.000000 0.000000 0.000000 
9.832024 0.844476 27.031250 0.000000 0.000000 0.000000 
9.293875 3.549932 24.843750 0.000000 0.000000 0.000000 
9.293875 3.549932 27.031250 0.000000 0.000000 0.000000 
9.616470 1.928130 30.312500 0.000000 0.000000 0.000000 
9.832024 0.844476 29.218750 0.000000 0.000000 0.000000 
9.832024 0.844476 31.406250 0.000000 0.000000 0.000000 
9.293875 3.549932 29.218750 0.000000 0.000000 0.000000 
9.293875 3.549932 31.406250 0.000000 0.000000 0.000000 
8.597822 4.786119 25.937500 0.000000 0.000000 0.000000 
8.597822 4.786119 30.312500 0.000000 0.000000 0.000000 
25.000000 2.812500 25.937500 0.000000 0.000000 0.000000 
25.000000 1.406250 24.843750 0.000000 0.000000 0.000000 
25.000000 1.406250 27.031250 0.000000 0.000000 0.000000 
25.000000 4.218750 24.843750 0.000000 0.000000 0.000000 
25.000000 4.218750 27.031250 0.000000 0.000000 0.000000 
25.000000 2.812500 30.312500 0.000000 0.000000 0.000000 
25.000000 1.406250 29.218750 0.000000 0.000000 0.000000 
25.000000 1.406250 31.406250 0.000000 0.000000 0.000000 
25.000000 4.218750 29.218750 0.000000 0.000000 0.000000 
25.000000 4.218750 31.406250 0.000000 0.000000 0.000000 
25.000000 8.437500 25.937500 0.000000 0.000000 0.000000 
25.000000 7.031250 24.843750 0.000000 0.000000 0.000000 
25.000000 7.031250 27.031250 0.000000 0.000000 0.000000 
25.000000 9.843750 24.843750 0.000000 0.000000 0.000000 
25.000000 9.843750 27.031250 0.000000 0.000000 0.000000 
25.000000 8.437500 30.312500 0.000000 0.000000 0.000000 
25.000000 7.031250 29.218750 0.000000 0.000000 0.000000 
25.000000 7.031250 31.406250 0.000000 0.000000 0.000000 
25.000000 9.843750 29.218750 0.000000 0.000000 0.000000 
25.000000 9.843750 31.406250 0.000000 0.000000 0.000000 
14.062500 25.000000 17.187500 0.000000 0.000000 0.000000 
12.656250 25.000000 16.093750 0.000000 0.000000 0.000000 
12.656250 25.000000 18.281250 0.000000 0.000000 0.000000 
15.468750 25.000000 16.093750 0.000000 0.000000 0.000000 
15.468750 25.000000 18.281250 0.000000 0.000000 0.000000 
14.062500 25.000000 21.562500 0.000000 0.000000 0.000000 
12.656250 25.000000 20.468750 0.000000 0.000000 0.000000 
12.656250 25.000000 22.656250 0.000000 0.000000 0.000000 
15.468750 25.000000 20.468750 0.000000 0.000000 0.000000 
15.468750 25.000000 22.656250 0.000000 0.000000 0.000000 
25.000000 14.062500 17.187500 0.000000 0.000000 0.000000 
25.000000 12.656250 16.093750 0.000000 0.000000 0.000000 
25.000000 12.656250 18.281250 0.000000 0.000000 0.000000 
25.000000 15.468750 16.093750 0.000000 0.000000 0.000000 
25.000000 15.468750 18.281250 0.000000 0.000000 0.000000 
25.000000 14.062500 21.562500 0.000000 0.000000 0.000000 
25.000000 12.656250 20.468750 0.000000 0.000000 0.000000 
25.000000 12.656250 22.656250 0.000000 0.000000 0.000000 
25.000000 15.468750 20.468750 0.000000 0.000000 0.000000 
25.000000 15.468750 22.656250 0.000000 0.000000 0.000000 
25.000000 19.687500 17.187500 0.000000 0.000000 0.000000 
18.281250 25.000000 16.093750 0.000000 0.000000 0.000000 
18.281250 25.000000 18.281250 0.000000 0.000000 0.000000 
25.000000 18.281250 16.093750 0.000000 0.000000 0.000000 
25.000000 18.281250 18.281250 0.000000 0.000000 0.000000 
25.000000 21.093750 16.093750 0.000000 0.000000 0.000000 
25.000000 21.093750 18.281250 0.000000 0.000000 0.000000 
25.000000 19.687500 21.562500 0.000000 0.000000 0.000000 
18.281250 25.000000 20.468750 0.000000 0.000000 0.000000 
18.281250 25.000000 22.656250 0.000000 0.000000 0.000000 
25.000000 18.281250 20.468750 0.000000 0.000000 0.000000 
25.000000 18.281250 22.656250 0.000000 0.000000 0.000000 
25.000000 21.093750 20.468750 0.000000 0.000000 0.000000 
25.000000 21.093750 22.656250 0.000000 0.000000 0.000000 
14.062500 25.000000 25.937500 0.000000 0.000000 0.000000 
12.656250 25.000000 24.843750 0.000000 0.000000 0.000000 
12.656250 25.000000 27.031250 0.000000 0.000000 0.000000 
15.468750 25.000000 24.843750 0.000000 0.000000 0.000000 
15.468750 25.000000 27.031250 0.000000 0.000000 0.000000 
14.062500 25.000000 30.312500 0.000000 0.000000 0.000000 
12.656250 25.000000 29.218750 0.000000 0.000000 0.000000 
12.656250 25.000000 31.406250 0.000000 0.000000 0.000000 
15.468750 25.000000 29.218750 0.000000 0.000000 0.000000 
15.468750 25.000000 31.406250 0.000000 0.000000 0.000000 
25.000000 14.062500 25.937500 0.000000 0.000000 0.000000 
25.000000 12.656250 24.843750 0.000000 0.000000 0.000000 
25.000000 12.656250 27.031250 0.000000 0.000000 0.000000 
25.000000 15.468750 24.843750 0.000000 0.000000 0.000000 
25.000000 15.468750 27.031250 0.000000 0.000000 0.000000 
25.000000 14.062500 30.312500 0.000000 0.000000 0.000000 
25.000000 12.656250 29.218750 0.000000 0.000000 0.000000 
25.000000 12.656250 31.406250 0.000000 0.000000 0.000000 
25.000000 15.468750 29.218750 0.000000 0.000000 0.000000 
25.000000 15.468750 31.406250 0.000000 0.000000 0.000000 
25.000000 19.687500 25.937500 0.000000 0.000000 0.000000 
18.281250 25.000000 24.843750 0.000000 0.000000 0.000000 
18.281250 25.000000 27.031250 0.000000 0.000000 0.000000 
25.000000 18.281250 24.843750 0.000000 0.000000 0.000000 
25.000000 18.281250 27.031250 0.000000 0.000000 0.000000 
25.000000 21.093750 24.843750 0.000000 0.000000 0.000000 
25.000000 21.093750 27.031250 0.000000 0.000000 0.000000 
25.000000 19.687500 30.312500 0.000000 0.000000 0.000000 
18.281250 25.000000 29.218750 0.000000 0.000000 0.000000 
18.281250 25.000000 31.406250 0.000000 0.000000 0.000000 
25.000000 18.281250 29.218750 0.000000 0.000000 0.000000 
25.000000 18.281250 31.406250 0.000000 0.000000 0.000000 
25.000000 21.093750 29.218750 0.000000 0.000000 0.000000 
25.000000 21.093750 31.406250 0.000000 0.000000 0.000000 
7.723827 6.094144 34.687500 0.000000 0.000000 0.000000 
7.508275 6.416740 33.593750 0.000000 0.000000 0.000000 
7.508275 6.416740 35.781250 0.000000 0.000000 0.000000 
7.723827 6.094144 39.062500 0.000000 0.000000 0.000000 
7.508275 6.416740 37.968750 0.000000 0.000000 0.000000 
7.508275 6.416740 40.156250 0.000000 0.000000 0.000000 
3.004427 9.402382 34.687500 0.000000 0.000000 0.000000 
1.920774 9.617934 33.593750 0.000000 0.000000 0.000000 
1.920774 9.617934 35.781250 0.000000 0.000000 0.000000 
1.382625 9.724978 33.593750 0.000000 0.000000 0.000000 
1.382625 9.724978 35.781250 0.000000 0.000000 0.000000 
5.117535 8.376377 33.593750 0.000000 0.000000 0.000000 
5.117535 8.376377 35.781250 0.000000 0.000000 0.000000 
3.826834 9.238795 33.593750 0.000000 0.000000 0.000000 
3.826834 9.238795 35.781250 0.000000 0.000000 0.000000 
3.004427 9.402382 39.062500 0.000000 0.000000 0.000000 
1.920774 9.617934 37.968750 0.000000 0.000000 0.000000 
1.920774 9.617934 40.156250 0.000000 0.000000 0.000000 
1.382625 9.724978 37.968750 0.000000 0.000000 0.000000 
1.382625 9.724978 40.156250 0.000000 0.000000 0.000000 
5.117535 8.376377 37.968750 0.000000 0.000000 0.000000 
5.117535 8.376377 40.156250 0.000000 0.000000 0.000000 
3.826834 9.238795 37.968750 0.000000 0.000000 0.000000 
3.826834 9.238795 40.156250 0.000000 0.000000 0.000000 
9.402382 3.004427 34.687500 0.000000 0.000000 0.000000 
9.617934 1.920774 33.593750 0.000000 0.000000 0.000000 
9.617934 1.920774 35.781250 0.000000 0.000000 0.000000 
8.376377 5.117535 33.593750 0.000000 0.000000 0.000000 
8.376377 5.117535 35.781250 0.000000 0.000000 0.000000 
9.724978 1.382625 33.593750 0.000000 0.000000 0.000000 
9.724978 1.382625 35.781250 0.000000 0.000000 0.000000 
9.238795 3.826834 33.593750 0.000000 0.000000 0.000000 
9.238795 3.826834 35.781250 0.000000 0.000000 0.000000 
9.402382 3.004427 39.062500 0.000000 0.000000 0.000000 
9.617934 1.920774 37.968750 0.000000 0.000000 0.000000 
9.617934 1.920774 40.156250 0.000000 0.000000 0.000000 
8.376377 5.117535 37.968750 0.000000 0.000000 0.000000 
8.376377 5.117535 40.156250 0.000000 0.000000 0.000000 
9.724978 1.382625 37.968750 0.000000 0.000000 0.000000 
9.724978 1.382625 40.156250 0.000000 0.000000 0.000000 
9.238795 3.826834 37.968750 0.000000 0.000000 0.000000 
9.238795 3.826834 40.156250 0.000000 0.000000 0.000000 
7.071068 7.071068 34.687500 0.000000 0.000000 0.000000 
7.077171 7.061934 33.593750 0.000000 0.000000 0.000000 
7.077171 7.061934 35.781250 0.000000 0.000000 0.000000 
5.762728 7.945272 33.593750 0.000000 0.000000 0.000000 
5.762728 7.945272 35.781250 0.000000 0.000000 0.000000 
7.945272 5.762728 33.593750 0.000000 0.000000 0.000000 
7.945272 5.762728 35.781250 0.000000 0.000000 0.000000 
7.071068 7.071068 33.593750 0.000000 0.000000 0.000000 
7.071068 7.071068 35.781250 0.000000 0.000000 0.000000 
7.071068 7.071068 39.062500 0.000000 0.000000 0.000000 
7.077171 7.061934 37.968750 0.000000 0.000000 0.000000 
7.077171 7.061934 40.156250 0.000000 0.000000 0.000000 
5.762728 7.945272 37.968750 0.000000 0.000000 0.000000 
5.762728 7.945272 40.156250 0.000000 0.000000 0.000000 
7.945272 5.762728 37.968750 0.000000 0.000000 0.000000 
7.945272 5.762728 40.156250 0.000000 0.000000 0.000000 
7.071068 7.071068 37.968750 0.000000 0.000000 0.000000 
7.071068 7.071068 40.156250 0.000000 0.000000 0.000000 
7.723827 6.094144 43.437500 0.000000 0.000000 0.000000 
7.508275 6.416740 42.343750 0.000000 0.000000 0.000000 
7.508275 6.416740 44.531250 0.000000 0.000000 0.000000 
7.723827 6.094144 47.812500 0.000000 0.000000 0.000000 
7.508275 6.416740 46.718750 0.000000 0.000000 0.000000 
7.508275 6.416740 48.906250 0.000000 0.000000 0.000000 
3.004427 9.402382 43.437500 0.000000 0.000000 0.000000 
1.920774 9.617934 42.343750 0.000000 0.000000 0.000000 
1.920774 9.617934 44.531250 0.000000 0.000000 0.000000 
1.382625 9.724978 42.343750 0.000000 0.000000 0.000000 
1.382625 9.724978 44.531250 0.000000 0.000000 0.000000 
5.117535 8.376377 42.343750 0.000000 0.000000 0.000000 
5.117535 8.376377 44.531250 0.000000 0.000000 0.000000 
3.826834 9.238795 42.343750 0.000000 0.000000 0.000000 
3.826834 9.238795 44.531250 0.000000 0.000000 0.000000 
3.004427 9.402382 47.812500 0.000000 0.000000 0.000000 
1.920774 9.617934 46.718750 0.000000 0.000000 0.000000 
1.920774 9.617934 48.906250 0.000000 0.000000 0.000000 
1.382625 9.724978 46.718750 0.000000 0.000000 0.000000 
1.382625 9.724978 48.906250 0.000000 0.000000 0.000000 
5.117535 8.376377 46.718750 0.000000 0.000000 0.000000 
5.117535 8.376377 48.906250 0.000000 0.000000 0.000000 
3.826834 9.238795 46.718750 0.000000 0.000000 0.000000 
3.826834 9.238795 48.906250 0.000000 0.000000 0.000000 
9.402382 3.004427 43.437500 0.000000 0.000000 0.000000 
9.617934 1.920774 42.343750 0.000000 0.000000 0.000000 
9.617934 1.920774 44.531250 0.000000 0.000000 0.000000 
8.376377 5.117535 42.343750 0.000000 0.000000 0.000000 
8.376377 5.117535 44.531250 0.000000 0.000000 0.000000 
9.724978 1.382625 42.343750 0.000000 0.000000 0.000000 
9.724978 1.382625 44.531250 0.000000 0.000000 0.000000 
9.238795 3.826834 42.343750 0.000000 0.000000 0.000000 
9.238795 3.826834 44.531250 0.000000 0.000000 0.000000 
9.402382 3.004427 47.812500 0.000000 0.000000 0.000000 
9.617934 1.920774 46.718750 0.000000 0.000000 0.000000 
9.617934 1.920774 48.906250 0.000000 0.000000 0.000000 
8.376377 5.117535 46.718750 0.000000 0.000000 0.000000 
8.376377 5.117535 48.906250 0.000000 0.000000 0.000000 
9.724978 1.382625 46.718750 0.000000 0.000000 0.000000 
9.724978 1.382625 48.906250 0.000000 0.000000 0.000000 
9.238795 3.826834 46.718750 0.000000 0.000000 0.000000 
9.238795 3.826834 48.906250 0.000000 0.000000 0.000000 
7.071068 7.071068 43.437500 0.000000 0.000000 0.000000 
7.077171 7.061934 42.343750 0.000000 0.000000 0.000000 
7.077171 7.061934 44.531250 0.000000 0.000000 0.000000 
5.762728 7.945272 42.343750 0.000000 0.000000 0.000000 
5.762728 7.945272 44.531250 0.000000 0.000000 0.000000 
7.945272 5.762728 42.343750 0.000000 0.000000 0.000000 
7.945272 5.762728 44.531250 0.000000 0.000000 0.000000 
7.071068 7.071068 42.343750 0.000000 0.000000 0.000000 
7.071068 7.071068 44.531250 0.000000 0.000000 0.000000 
7.071068 7.071068 47.812500 0.000000 0.000000 0.000000 
7.077171 7.061934 46.718750 0.000000 0.000000 0.000000 
7.077171 7.061934 48.906250 0.000000 0.000000 0.000000 
5.762728 7.945272 46.718750 0.000000 0.000000 0.000000 
5.762728 7.945272 48.906250 0.000000 0.000000 0.000000 
7.945272 5.762728 46.718750 0.000000 0.000000 0.000000 
7.945272 5.762728 48.906250 0.000000 0.000000 0.000000 
7.071068 7.071068 46.718750 0.000000 0.000000 0.000000 
7.071068 7.071068 48.906250 0.000000 0.000000 0.000000 
1.928130 9.616470 34.687500 0.000000 0.000000 0.000000 
0.844476 9.832024 33.593750 0.000000 0.000000 0.000000 
0.844476 9.832024 35.781250 0.000000 0.000000 0.000000 
3.549932 9.293875 33.593750 0.000000 0.000000 0.000000 
3.549932 9.293875 35.781250 0.000000 0.000000 0.000000 
1.928130 9.616470 39.062500 0.000000 0.000000 0.000000 
0.844476 9.832024 37.968750 0.000000 0.000000 0.000000 
0.844476 9.832024 40.156250 0.000000 0.000000 0.000000 
3.549932 9.293875 37.968750 0.000000 0.000000 0.000000 
3.549932 9.293875 40.156250 0.000000 0.000000 0.000000 
2.812500 25.000000 34.687500 0.000000 0.000000 0.000000 
1.406250 25.000000 33.593750 0.000000 0.000000 0.000000 
1.406250 25.000000 35.781250 0.000000 0.000000 0.000000 
4.218750 25.000000 33.593750 0.000000 0.000000 0.000000 
4.218750 25.000000 35.781250 0.000000 0.000000 0.000000 
2.812500 25.000000 39.062500 0.000000 0.000000 0.000000 
1.406250 25.000000 37.968750 0.000000 0.000000 0.000000 
1.406250 25.000000 40.156250 0.000000 0.000000 0.000000 
4.218750 25.000000 37.968750 0.000000 0.000000 0.000000 
4.218750 25.000000 40.156250 0.000000 0.000000 0.000000 
4.786119 8.597822 34.687500 0.000000 0.000000 0.000000 
4.786119 8.597822 39.062500 0.000000 0.000000 0.000000 
8.437500 25.000000 34.687500 0.000000 0.000000 0.000000 
7.031250 25.000000 33.593750 0.000000 0.000000 0.000000 
7.031250 25.000000 35.781250 0.000000 0.000000 0.000000 
9.843750 25.000000 33.593750 0.000000 0.000000 0.000000 
9.843750 25.000000 35.781250 0.000000 0.000000 0.000000 
8.437500 25.000000 39.062500 0.000000 0.000000 0.000000 
7.031250 25.000000 37.968750 0.000000 0.000000 0.000000 
7.031250 25.000000 40.156250 0.000000 0.000000 0.000000 
9.843750 25.000000 37.968750 0.000000 0.000000 0.000000 
9.843750 25.000000 40.156250 0.000000 0.000000 0.000000 
1.928130 9.616470 43.437500 0.000000 0.000000 0.000000 
0.844476 9.832024 42.343750 0.000000 0.000000 0.000000 
0.844476 9.832024 44.531250 0.000000 0.000000 0.000000 
3.549932 9.293875 42.343750 0.000000 0.000000 0.000000 
3.549932 9.293875 44.531250 0.000000 0.000000 0.000000 
1.928130 9.616470 47.812500 0.000000 0.000000 0.000000 
0.844476 9.832024 46.718750 0.000000 0.000000 0.000000 
