39.097649 -57.410378 37.597576 0.000000 0.000000 0.000000 
39.702633 -58.015362 41.544785 0.000000 0.000000 0.000000 
40.906891 -53.115383 36.318249 0.000000 0.000000 0.000000 
42.144329 -54.352818 39.818253 0.000000 0.000000 0.000000 
42.760189 -54.968678 39.324120 0.000000 0.000000 0.000000 
43.997627 -56.206112 42.824120 0.000000 0.000000 0.000000 
45.201885 -51.306129 37.597580 0.000000 0.000000 0.000000 
45.806873 -51.911114 41.544792 0.000000 0.000000 0.000000 
44.610909 -56.819393 46.794792 0.000000 0.000000 0.000000 
40.940067 -59.252796 45.044792 0.000000 0.000000 0.000000 
42.177502 -60.490231 48.544792 0.000000 0.000000 0.000000 
43.381763 -55.590252 43.318256 0.000000 0.000000 0.000000 
44.619202 -56.827690 46.818256 0.000000 0.000000 0.000000 
45.235065 -57.443546 46.324120 0.000000 0.000000 0.000000 
45.840050 -58.048531 50.271332 0.000000 0.000000 0.000000 
47.044308 -53.148552 45.044796 0.000000 0.000000 0.000000 
48.281742 -54.385986 48.544800 0.000000 0.000000 0.000000 
34.877293 -71.502754 53.794800 0.000000 0.000000 0.000000 
31.206453 -73.936165 52.044796 0.000000 0.000000 0.000000 
32.443886 -75.173599 55.544800 0.000000 0.000000 0.000000 
34.868992 -71.494461 53.771339 0.000000 0.000000 0.000000 
36.106426 -72.731888 57.271343 0.000000 0.000000 0.000000 
37.310696 -67.831917 52.044796 0.000000 0.000000 0.000000 
38.548130 -69.069351 55.544800 0.000000 0.000000 0.000000 
37.352161 -73.977631 60.794804 0.000000 0.000000 0.000000 
37.343864 -73.969330 60.771347 0.000000 0.000000 0.000000 
38.581299 -75.206764 64.271347 0.000000 0.000000 0.000000 
39.760693 -64.177666 50.341721 0.000000 0.000000 0.000000 
42.235561 -66.652534 57.341728 0.000000 0.000000 0.000000 
42.834824 -67.251801 56.800671 0.000000 0.000000 0.000000 
39.163979 -69.685204 55.050671 0.000000 0.000000 0.000000 
39.768970 -70.290199 58.997879 0.000000 0.000000 0.000000 
40.973236 -65.390213 53.771336 0.000000 0.000000 0.000000 
42.210670 -66.627647 57.271339 0.000000 0.000000 0.000000 
42.826527 -67.243500 56.777210 0.000000 0.000000 0.000000 
44.063965 -68.480934 60.277214 0.000000 0.000000 0.000000 
45.268230 -63.580959 55.050671 0.000000 0.000000 0.000000 
45.873219 -64.185951 58.997879 0.000000 0.000000 0.000000 
44.677250 -69.094231 64.247879 0.000000 0.000000 0.000000 
41.006409 -71.527634 62.497879 0.000000 0.000000 0.000000 
42.243843 -72.765068 65.997887 0.000000 0.000000 0.000000 
43.448109 -67.865082 60.771343 0.000000 0.000000 0.000000 
44.685543 -69.102516 64.271347 0.000000 0.000000 0.000000 
45.301395 -69.718369 63.777218 0.000000 0.000000 0.000000 
45.906387 -70.323364 67.724426 0.000000 0.000000 0.000000 
47.110657 -65.423386 62.497879 0.000000 0.000000 0.000000 
48.348091 -66.660820 65.997887 0.000000 0.000000 0.000000 
47.085781 -59.294266 53.794800 0.000000 0.000000 0.000000 
43.414936 -61.727665 52.044796 0.000000 0.000000 0.000000 
44.652370 -62.965099 55.544800 0.000000 0.000000 0.000000 
47.077484 -59.285965 53.771336 0.000000 0.000000 0.000000 
48.314919 -60.523399 57.271339 0.000000 0.000000 0.000000 
49.519184 -55.623425 52.044796 0.000000 0.000000 0.000000 
50.756618 -56.860859 55.544800 0.000000 0.000000 0.000000 
49.560650 -61.769135 60.794804 0.000000 0.000000 0.000000 
49.552357 -61.760838 60.771343 0.000000 0.000000 0.000000 
50.789791 -62.998272 64.271347 0.000000 0.000000 0.000000 
6.104244 -42.729706 1.000000 0.000000 0.000000 0.000000 
3.052122 -45.781830 1.000000 0.000000 0.000000 0.000000 
3.052122 -45.781830 1.000000 0.000000 0.000000 0.000000 
3.052122 -39.677582 1.000000 0.000000 0.000000 0.000000 
3.052122 -39.677582 1.000000 0.000000 0.000000 0.000000 
9.156365 -45.781830 1.000000 0.000000 0.000000 0.000000 
9.156365 -45.781830 1.000000 0.000000 0.000000 0.000000 
9.156365 -39.677582 1.000000 0.000000 0.000000 0.000000 
9.156365 -39.677582 1.000000 0.000000 0.000000 0.000000 
6.104244 -42.729706 1.000000 0.000000 0.000000 0.000000 
6.104244 -30.521217 1.000000 0.000000 0.000000 0.000000 
3.052122 -33.573341 1.000000 0.000000 0.000000 0.000000 
3.052122 -33.573341 1.000000 0.000000 0.000000 0.000000 
3.052122 -27.469095 1.000000 0.000000 0.000000 0.000000 
2.594973 -23.850998 3.000000 0.000000 0.000000 0.000000 
9.156365 -33.573341 1.000000 0.000000 0.000000 0.000000 
9.156365 -33.573341 1.000000 0.000000 0.000000 0.000000 
9.156365 -27.469095 1.000000 0.000000 0.000000 0.000000 
9.156365 -27.469095 1.000000 0.000000 0.000000 0.000000 
6.104244 -30.521217 1.000000 0.000000 0.000000 0.000000 
2.594973 -23.850998 3.000000 0.000000 0.000000 0.000000 
7.621808 -22.746124 3.000000 0.000000 0.000000 0.000000 
18.312731 -42.729706 1.000000 0.000000 0.000000 0.000000 
15.260609 -45.781830 1.000000 0.000000 0.000000 0.000000 
15.260609 -45.781830 1.000000 0.000000 0.000000 0.000000 
15.260609 -39.677582 1.000000 0.000000 0.000000 0.000000 
15.260609 -39.677582 1.000000 0.000000 0.000000 0.000000 
21.364853 -45.781830 1.000000 0.000000 0.000000 0.000000 
23.698919 -48.115898 4.912066 0.000000 0.000000 0.000000 
21.364853 -39.677582 1.000000 0.000000 0.000000 0.000000 
21.364853 -39.677582 1.000000 0.000000 0.000000 0.000000 
24.944649 -49.361626 8.435524 0.000000 0.000000 0.000000 
21.273809 -51.795033 6.685524 0.000000 0.000000 0.000000 
24.936356 -49.353333 8.412066 0.000000 0.000000 0.000000 
26.173798 -50.590775 11.912071 0.000000 0.000000 0.000000 
27.378056 -45.690784 6.685523 0.000000 0.000000 0.000000 
18.312731 -30.521217 1.000000 0.000000 0.000000 0.000000 
15.260609 -33.573341 1.000000 0.000000 0.000000 0.000000 
15.260609 -33.573341 1.000000 0.000000 0.000000 0.000000 
15.260609 -27.469095 1.000000 0.000000 0.000000 0.000000 
15.260609 -27.469095 1.000000 0.000000 0.000000 0.000000 
21.364853 -33.573341 1.000000 0.000000 0.000000 0.000000 
21.364853 -33.573341 1.000000 0.000000 0.000000 0.000000 
21.364853 -27.469095 1.000000 0.000000 0.000000 0.000000 
21.364853 -27.469095 1.000000 0.000000 0.000000 0.000000 
18.312731 -30.521217 1.000000 0.000000 0.000000 0.000000 
27.419529 -51.836506 15.435537 0.000000 0.000000 0.000000 
27.411232 -51.828209 15.412076 0.000000 0.000000 0.000000 
29.894390 -54.311367 22.435555 0.000000 0.000000 0.000000 
6.625555 -19.917053 3.000000 0.000000 0.000000 0.000000 
2.978291 -20.780252 2.187500 0.000000 0.000000 0.000000 
3.052122 -21.364853 3.000000 0.000000 0.000000 0.000000 
4.069112 -20.591949 2.187500 0.000000 0.000000 0.000000 
4.069112 -20.591949 3.000000 0.000000 0.000000 0.000000 
9.433524 -22.064911 2.187500 0.000000 0.000000 0.000000 
9.156365 -21.364853 3.000000 0.000000 0.000000 0.000000 
10.870196 -17.961182 2.187500 0.000000 0.000000 0.000000 
10.870195 -17.961182 3.000000 0.000000 0.000000 0.000000 
6.625556 -19.917053 3.000000 0.000000 0.000000 0.000000 
3.052122 -21.364853 3.000000 0.000000 0.000000 0.000000 
4.069112 -20.591949 3.000000 0.000000 0.000000 0.000000 
9.156365 -21.364853 3.000000 0.000000 0.000000 0.000000 
10.870195 -17.961182 3.000000 0.000000 0.000000 0.000000 
15.115108 -14.566038 3.000000 0.000000 0.000000 0.000000 
15.022302 -14.664865 2.187500 0.000000 0.000000 0.000000 
15.022302 -14.664866 3.000000 0.000000 0.000000 0.000000 
15.115108 -14.566038 3.000000 0.000000 0.000000 0.000000 
16.970600 -16.970600 3.000000 0.000000 0.000000 0.000000 
15.260609 -21.364853 1.000000 0.000000 0.000000 0.000000 
13.928517 -19.531311 3.000000 0.000000 0.000000 0.000000 
14.849200 -14.849200 2.187500 0.000000 0.000000 0.000000 
15.260609 -15.260609 3.000000 0.000000 0.000000 0.000000 
21.364853 -21.364853 1.000000 0.000000 0.000000 0.000000 
21.364853 -21.364853 1.000000 0.000000 0.000000 0.000000 
21.364853 -15.260609 1.000000 0.000000 0.000000 0.000000 
19.531311 -13.928517 3.000000 0.000000 0.000000 0.000000 
16.970600 -16.970600 3.000000 0.000000 0.000000 0.000000 
13.928517 -19.531311 3.000000 0.000000 0.000000 0.000000 
15.260609 -15.260609 3.000000 0.000000 0.000000 0.000000 
19.531311 -13.928517 3.000000 0.000000 0.000000 0.000000 
19.917053 -6.625555 3.000000 0.000000 0.000000 0.000000 
17.961182 -10.870196 2.187500 0.000000 0.000000 0.000000 
17.961182 -10.870195 3.000000 0.000000 0.000000 0.000000 
20.591949 -4.069112 2.187500 0.000000 0.000000 0.000000 
20.591949 -4.069112 3.000000 0.000000 0.000000 0.000000 
22.064911 -9.433524 2.187500 0.000000 0.000000 0.000000 
21.364853 -9.156365 3.000000 0.000000 0.000000 0.000000 
20.780252 -2.978291 2.187500 0.000000 0.000000 0.000000 
21.364853 -3.052122 3.000000 0.000000 0.000000 0.000000 
19.917053 -6.625555 3.000000 0.000000 0.000000 0.000000 
17.961182 -10.870195 3.000000 0.000000 0.000000 0.000000 
20.591949 -4.069112 3.000000 0.000000 0.000000 0.000000 
21.364853 -9.156365 3.000000 0.000000 0.000000 0.000000 
21.364853 -3.052122 3.000000 0.000000 0.000000 0.000000 
6.625556 -19.917053 3.000000 0.000000 0.000000 0.000000 
16.970600 -16.970600 3.000000 0.000000 0.000000 0.000000 
19.917053 -6.625555 3.000000 0.000000 0.000000 0.000000 
30.427313 -42.635803 4.441401 0.000000 0.000000 0.000000 
26.756474 -45.069206 2.691402 0.000000 0.000000 0.000000 
27.361467 -45.674202 6.638606 0.000000 0.000000 0.000000 
27.469097 -39.677582 1.000000 0.000000 0.000000 0.000000 
29.803169 -42.011654 4.912062 0.000000 0.000000 0.000000 
30.419022 -42.627510 4.417945 0.000000 0.000000 0.000000 
31.656460 -43.864948 7.917943 0.000000 0.000000 0.000000 
32.860718 -38.964958 2.691402 0.000000 0.000000 0.000000 
33.465714 -39.569954 6.638604 0.000000 0.000000 0.000000 
32.269741 -44.478230 11.888609 0.000000 0.000000 0.000000 
28.598904 -46.911636 10.138608 0.000000 0.000000 0.000000 
29.836342 -48.149075 13.638610 0.000000 0.000000 0.000000 
31.040604 -43.249088 8.412063 0.000000 0.000000 0.000000 
32.278042 -44.486526 11.912070 0.000000 0.000000 0.000000 
32.893890 -45.102379 11.417941 0.000000 0.000000 0.000000 
33.498886 -45.707375 15.365149 0.000000 0.000000 0.000000 
34.703148 -40.807388 10.138608 0.000000 0.000000 0.000000 
35.940586 -42.044827 13.638610 0.000000 0.000000 0.000000 
30.521217 -30.521217 1.000000 0.000000 0.000000 0.000000 
27.469097 -33.573341 1.000000 0.000000 0.000000 0.000000 
27.469097 -33.573341 1.000000 0.000000 0.000000 0.000000 
27.469097 -27.469095 1.000000 0.000000 0.000000 0.000000 
27.469097 -27.469095 1.000000 0.000000 0.000000 0.000000 
33.573341 -33.573341 1.000000 0.000000 0.000000 0.000000 
35.907406 -35.907406 4.912065 0.000000 0.000000 0.000000 
33.573341 -27.469095 1.000000 0.000000 0.000000 0.000000 
33.573341 -27.469095 1.000000 0.000000 0.000000 0.000000 
37.153137 -37.153137 8.435522 0.000000 0.000000 0.000000 
33.482300 -39.586544 6.685524 0.000000 0.000000 0.000000 
37.144848 -37.144848 8.412065 0.000000 0.000000 0.000000 
38.382286 -38.382286 11.912071 0.000000 0.000000 0.000000 
39.586544 -33.482296 6.685524 0.000000 0.000000 0.000000 
37.752411 -37.752411 7.894485 0.000000 0.000000 0.000000 
34.081570 -40.185818 6.144486 0.000000 0.000000 0.000000 
35.318996 -41.423244 9.644472 0.000000 0.000000 0.000000 
36.523266 -36.523266 4.417943 0.000000 0.000000 0.000000 
37.760704 -37.760704 7.917941 0.000000 0.000000 0.000000 
40.185818 -34.081570 6.144486 0.000000 0.000000 0.000000 
41.423244 -35.318996 9.644472 0.000000 0.000000 0.000000 
40.227272 -40.227272 14.894481 0.000000 0.000000 0.000000 
36.556431 -42.660679 13.144477 0.000000 0.000000 0.000000 
37.793865 -43.898113 16.644484 0.000000 0.000000 0.000000 
38.998135 -38.998135 11.417939 0.000000 0.000000 0.000000 
39.603127 -39.603127 15.365147 0.000000 0.000000 0.000000 
40.218979 -40.218979 14.871015 0.000000 0.000000 0.000000 
41.456409 -41.456409 18.371021 0.000000 0.000000 0.000000 
42.660679 -36.556431 13.144477 0.000000 0.000000 0.000000 
43.898113 -37.793865 16.644484 0.000000 0.000000 0.000000 
42.635799 -30.427311 4.441402 0.000000 0.000000 0.000000 
38.964958 -32.860718 2.691402 0.000000 0.000000 0.000000 
39.569954 -33.465714 6.638604 0.000000 0.000000 0.000000 
39.677582 -27.469095 1.000000 0.000000 0.000000 0.000000 
42.011646 -29.803162 4.912065 0.000000 0.000000 0.000000 
42.627506 -30.419020 4.417947 0.000000 0.000000 0.000000 
43.864948 -31.656460 7.917943 0.000000 0.000000 0.000000 
45.069206 -26.756472 2.691402 0.000000 0.000000 0.000000 
45.674198 -27.361464 6.638608 0.000000 0.000000 0.000000 
44.478230 -32.269741 11.888609 0.000000 0.000000 0.000000 
40.807388 -34.703148 10.138608 0.000000 0.000000 0.000000 
42.044827 -35.940586 13.638610 0.000000 0.000000 0.000000 
43.249088 -31.040602 8.412063 0.000000 0.000000 0.000000 
44.486526 -32.278042 11.912070 0.000000 0.000000 0.000000 
45.102379 -32.893890 11.417941 0.000000 0.000000 0.000000 
45.707375 -33.498886 15.365149 0.000000 0.000000 0.000000 
46.911636 -28.598902 10.138608 0.000000 0.000000 0.000000 
48.149075 -29.836338 13.638610 0.000000 0.000000 0.000000 
34.744614 -46.953102 18.888615 0.000000 0.000000 0.000000 
31.073776 -49.386509 17.138615 0.000000 0.000000 0.000000 
32.311211 -50.623943 20.638618 0.000000 0.000000 0.000000 
33.515476 -45.723961 15.412074 0.000000 0.000000 0.000000 
34.736320 -46.944809 18.865152 0.000000 0.000000 0.000000 
35.973755 -48.182243 22.365156 0.000000 0.000000 0.000000 
37.178020 -43.282261 17.138615 0.000000 0.000000 0.000000 
38.415455 -44.519695 20.638618 0.000000 0.000000 0.000000 
37.219482 -49.427971 25.888622 0.000000 0.000000 0.000000 
33.548637 -51.861374 24.138626 0.000000 0.000000 0.000000 
37.211189 -49.419678 25.865158 0.000000 0.000000 0.000000 
38.448620 -50.657108 29.365168 0.000000 0.000000 0.000000 
39.652889 -45.757130 24.138620 0.000000 0.000000 0.000000 
39.628017 -39.628017 15.435537 0.000000 0.000000 0.000000 
39.619720 -39.619720 15.412076 0.000000 0.000000 0.000000 
42.102886 -42.102886 22.435545 0.000000 0.000000 0.000000 
42.702141 -42.702141 21.894493 0.000000 0.000000 0.000000 
39.031300 -45.135548 20.144489 0.000000 0.000000 0.000000 
39.636295 -45.740543 24.091694 0.000000 0.000000 0.000000 
40.840561 -40.840561 18.865150 0.000000 0.000000 0.000000 
42.077995 -42.077995 22.365154 0.000000 0.000000 0.000000 
42.693844 -42.693844 21.871027 0.000000 0.000000 0.000000 
43.931278 -43.931278 25.371033 0.000000 0.000000 0.000000 
45.135548 -39.031300 20.144489 0.000000 0.000000 0.000000 
45.740543 -39.636295 24.091694 0.000000 0.000000 0.000000 
44.544571 -44.544571 29.341700 0.000000 0.000000 0.000000 
40.873730 -46.977978 27.591698 0.000000 0.000000 0.000000 
42.111160 -48.215408 31.091705 0.000000 0.000000 0.000000 
43.315434 -43.315434 25.865156 0.000000 0.000000 0.000000 
44.552868 -44.552868 29.365160 0.000000 0.000000 0.000000 
45.168713 -45.168713 28.871038 0.000000 0.000000 0.000000 
45.773708 -45.773708 32.818241 0.000000 0.000000 0.000000 
46.977978 -40.873730 27.591698 0.000000 0.000000 0.000000 
48.215412 -42.111164 31.091702 0.000000 0.000000 0.000000 
46.953102 -34.744614 18.888615 0.000000 0.000000 0.000000 
43.282261 -37.178020 17.138615 0.000000 0.000000 0.000000 
44.519695 -38.415455 20.638618 0.000000 0.000000 0.000000 
45.723961 -33.515476 15.412074 0.000000 0.000000 0.000000 
46.944809 -34.736320 18.865152 0.000000 0.000000 0.000000 
48.182243 -35.973755 22.365156 0.000000 0.000000 0.000000 
49.386509 -31.073772 17.138615 0.000000 0.000000 0.000000 
50.623943 -32.311207 20.638618 0.000000 0.000000 0.000000 
49.427971 -37.219482 25.888622 0.000000 0.000000 0.000000 
45.757130 -39.652889 24.138620 0.000000 0.000000 0.000000 
49.419678 -37.211189 25.865158 0.000000 0.000000 0.000000 
50.657112 -38.448624 29.365162 0.000000 0.000000 0.000000 
51.861378 -33.548645 24.138620 0.000000 0.000000 0.000000 
30.521217 -18.312731 1.000000 0.000000 0.000000 0.000000 
27.469097 -21.364853 1.000000 0.000000 0.000000 0.000000 
27.469097 -21.364853 1.000000 0.000000 0.000000 0.000000 
27.469097 -15.260609 1.000000 0.000000 0.000000 0.000000 
27.469097 -15.260609 1.000000 0.000000 0.000000 0.000000 
33.573341 -21.364853 1.000000 0.000000 0.000000 0.000000 
33.573341 -21.364853 1.000000 0.000000 0.000000 0.000000 
33.573341 -15.260609 1.000000 0.000000 0.000000 0.000000 
33.573341 -15.260609 1.000000 0.000000 0.000000 0.000000 
30.521217 -18.312731 1.000000 0.000000 0.000000 0.000000 
30.521217 -6.104244 1.000000 0.000000 0.000000 0.000000 
27.469097 -9.156365 1.000000 0.000000 0.000000 0.000000 
27.469097 -9.156365 1.000000 0.000000 0.000000 0.000000 
27.469097 -3.052122 1.000000 0.000000 0.000000 0.000000 
23.850998 -2.594973 3.000000 0.000000 0.000000 0.000000 
33.573341 -9.156365 1.000000 0.000000 0.000000 0.000000 
33.573341 -9.156365 1.000000 0.000000 0.000000 0.000000 
33.573341 -3.052122 1.000000 0.000000 0.000000 0.000000 
33.573341 -3.052122 1.000000 0.000000 0.000000 0.000000 
30.521217 -6.104244 1.000000 0.000000 0.000000 0.000000 
22.746124 -7.621807 3.000000 0.000000 0.000000 0.000000 
23.850998 -2.594973 3.000000 0.000000 0.000000 0.000000 
42.729706 -18.312731 1.000000 0.000000 0.000000 0.000000 
39.677582 -21.364853 1.000000 0.000000 0.000000 0.000000 
39.677582 -21.364853 1.000000 0.000000 0.000000 0.000000 
39.677582 -15.260609 1.000000 0.000000 0.000000 0.000000 
39.677582 -15.260609 1.000000 0.000000 0.000000 0.000000 
45.781830 -21.364853 1.000000 0.000000 0.000000 0.000000 
48.115894 -23.698919 4.912065 0.000000 0.000000 0.000000 
45.781830 -15.260609 1.000000 0.000000 0.000000 0.000000 
45.781830 -15.260609 1.000000 0.000000 0.000000 0.000000 
49.361626 -24.944649 8.435524 0.000000 0.000000 0.000000 
45.690781 -27.378054 6.685523 0.000000 0.000000 0.000000 
49.353333 -24.936356 8.412066 0.000000 0.000000 0.000000 
50.590775 -26.173798 11.912071 0.000000 0.000000 0.000000 
51.795029 -21.273808 6.685524 0.000000 0.000000 0.000000 
42.729706 -6.104244 1.000000 0.000000 0.000000 0.000000 
39.677582 -9.156365 1.000000 0.000000 0.000000 0.000000 
39.677582 -9.156365 1.000000 0.000000 0.000000 0.000000 
39.677582 -3.052122 1.000000 0.000000 0.000000 0.000000 
39.677582 -3.052122 1.000000 0.000000 0.000000 0.000000 
45.781830 -9.156365 1.000000 0.000000 0.000000 0.000000 
45.781830 -9.156365 1.000000 0.000000 0.000000 0.000000 
45.781830 -3.052122 1.000000 0.000000 0.000000 0.000000 
45.781830 -3.052122 1.000000 0.000000 0.000000 0.000000 
42.729706 -6.104244 1.000000 0.000000 0.000000 0.000000 
51.836506 -27.419529 15.435537 0.000000 0.000000 0.000000 
51.828209 -27.411232 15.412076 0.000000 0.000000 0.000000 
54.311375 -29.894398 22.435545 0.000000 0.000000 0.000000 
39.694344 -51.902836 32.888638 0.000000 0.000000 0.000000 
39.686050 -51.894543 32.865173 0.000000 0.000000 0.000000 
42.169212 -54.377708 39.888645 0.000000 0.000000 0.000000 
47.019436 -47.019436 36.341713 0.000000 0.000000 0.000000 
43.348591 -49.452843 34.591709 0.000000 0.000000 0.000000 
44.586029 -50.690277 38.091713 0.000000 0.000000 0.000000 
45.790295 -45.790298 32.865170 0.000000 0.000000 0.000000 
47.011139 -47.011143 36.318249 0.000000 0.000000 0.000000 
48.248577 -48.248577 39.818253 0.000000 0.000000 0.000000 
49.452839 -43.348595 34.591709 0.000000 0.000000 0.000000 
50.690277 -44.586029 38.091713 0.000000 0.000000 0.000000 
49.494301 -49.494305 43.341721 0.000000 0.000000 0.000000 
49.486012 -49.486012 43.318256 0.000000 0.000000 0.000000 
50.723446 -50.723446 46.818260 0.000000 0.000000 0.000000 
51.902843 -39.694355 32.888630 0.000000 0.000000 0.000000 
51.894547 -39.686058 32.865166 0.000000 0.000000 0.000000 
54.377705 -42.169220 39.888641 0.000000 0.000000 0.000000 
51.969173 -51.969177 50.341728 0.000000 0.000000 0.000000 
54.444050 -54.444046 57.341728 0.000000 0.000000 0.000000 
42.735294 -54.943810 39.253742 0.000000 0.000000 0.000000 
45.143822 -45.143818 28.800640 0.000000 0.000000 0.000000 
47.618698 -47.618710 35.800659 0.000000 0.000000 0.000000 
46.389549 -46.389565 32.324120 0.000000 0.000000 0.000000 
47.626987 -47.626999 35.824123 0.000000 0.000000 0.000000 
54.943771 -42.735306 39.253750 0.000000 0.000000 0.000000 
42.801651 -67.218597 56.706810 0.000000 0.000000 0.000000 
42.867989 -79.493454 74.159950 0.000000 0.000000 0.000000 
45.276520 -69.693474 63.706818 0.000000 0.000000 0.000000 
47.751389 -72.168343 70.706825 0.000000 0.000000 0.000000 
46.522243 -70.939201 67.230286 0.000000 0.000000 0.000000 
47.759678 -72.176643 70.730293 0.000000 0.000000 0.000000 
55.076477 -67.284943 74.159897 0.000000 0.000000 0.000000 
45.210182 -57.418655 46.253727 0.000000 0.000000 0.000000 
47.685051 -59.893524 53.253735 0.000000 0.000000 0.000000 
46.455910 -58.664391 49.777191 0.000000 0.000000 0.000000 
47.693344 -59.901829 53.277195 0.000000 0.000000 0.000000 
50.093571 -50.093578 42.800659 0.000000 0.000000 0.000000 
46.422729 -52.526981 41.050659 0.000000 0.000000 0.000000 
47.660168 -53.764416 44.550663 0.000000 0.000000 0.000000 
48.864426 -48.864433 39.324123 0.000000 0.000000 0.000000 
50.101864 -50.101868 42.824123 0.000000 0.000000 0.000000 
52.526962 -46.422729 41.050667 0.000000 0.000000 0.000000 
53.764400 -47.660168 44.550667 0.000000 0.000000 0.000000 
52.568451 -52.568451 49.800659 0.000000 0.000000 0.000000 
48.897606 -55.001854 48.050659 0.000000 0.000000 0.000000 
50.135048 -56.239288 51.550655 0.000000 0.000000 0.000000 
51.339302 -51.339306 46.324123 0.000000 0.000000 0.000000 
51.944286 -51.944286 50.271336 0.000000 0.000000 0.000000 
52.560146 -52.560154 49.777206 0.000000 0.000000 0.000000 
53.797585 -53.797588 53.277203 0.000000 0.000000 0.000000 
55.001842 -48.897602 48.050667 0.000000 0.000000 0.000000 
56.239281 -50.135040 51.550667 0.000000 0.000000 0.000000 
55.010147 -55.010124 56.706806 0.000000 0.000000 0.000000 
57.418648 -45.210175 46.253750 0.000000 0.000000 0.000000 
59.893524 -47.685047 53.253750 0.000000 0.000000 0.000000 
58.664391 -46.455914 49.777206 0.000000 0.000000 0.000000 
59.901829 -47.693348 53.277203 0.000000 0.000000 0.000000 
50.159916 -62.368397 60.253746 0.000000 0.000000 0.000000 
46.489075 -64.801804 58.503742 0.000000 0.000000 0.000000 
47.726509 -66.039238 62.003746 0.000000 0.000000 0.000000 
48.930779 -61.139259 56.777203 0.000000 0.000000 0.000000 
50.168213 -62.376698 60.277206 0.000000 0.000000 0.000000 
52.593323 -58.697559 58.503738 0.000000 0.000000 0.000000 
53.830757 -59.934998 62.003742 0.000000 0.000000 0.000000 
52.634785 -64.843269 67.253754 0.000000 0.000000 0.000000 
48.963940 -67.276672 65.503754 0.000000 0.000000 0.000000 
50.201378 -68.514107 69.003754 0.000000 0.000000 0.000000 
51.405643 -63.614132 63.777210 0.000000 0.000000 0.000000 
52.010632 -64.219124 67.724419 0.000000 0.000000 0.000000 
52.626488 -64.834969 67.230286 0.000000 0.000000 0.000000 
53.863922 -66.072411 70.730293 0.000000 0.000000 0.000000 
55.068192 -61.172428 65.503746 0.000000 0.000000 0.000000 
56.305626 -62.409866 69.003754 0.000000 0.000000 0.000000 
55.043324 -55.043320 56.800663 0.000000 0.000000 0.000000 
51.372478 -57.476719 55.050663 0.000000 0.000000 0.000000 
51.977459 -58.081699 58.997879 0.000000 0.000000 0.000000 
53.181721 -53.181721 53.771339 0.000000 0.000000 0.000000 
54.419159 -54.419159 57.271339 0.000000 0.000000 0.000000 
55.035027 -55.035019 56.777199 0.000000 0.000000 0.000000 
56.272461 -56.272453 60.277203 0.000000 0.000000 0.000000 
57.476719 -51.372475 55.050667 0.000000 0.000000 0.000000 
58.081699 -51.977455 58.997879 0.000000 0.000000 0.000000 
56.885738 -56.885735 64.247879 0.000000 0.000000 0.000000 
53.214897 -59.319138 62.497879 0.000000 0.000000 0.000000 
54.452332 -60.556572 65.997887 0.000000 0.000000 0.000000 
55.656597 -55.656597 60.771343 0.000000 0.000000 0.000000 
56.894032 -56.894032 64.271347 0.000000 0.000000 0.000000 
57.509892 -57.509888 63.777210 0.000000 0.000000 0.000000 
58.114876 -58.114872 67.724419 0.000000 0.000000 0.000000 
59.319141 -53.214897 62.497879 0.000000 0.000000 0.000000 
60.556576 -54.452332 65.997887 0.000000 0.000000 0.000000 
57.485012 -57.484997 63.706814 0.000000 0.000000 0.000000 
59.959881 -59.959869 70.706825 0.000000 0.000000 0.000000 
58.730736 -58.730728 67.230286 0.000000 0.000000 0.000000 
59.968170 -59.968166 70.730286 0.000000 0.000000 0.000000 
62.368404 -50.159920 60.253750 0.000000 0.000000 0.000000 
58.697571 -52.593334 58.503742 0.000000 0.000000 0.000000 
59.935009 -53.830753 62.003738 0.000000 0.000000 0.000000 
61.139267 -48.930786 56.777206 0.000000 0.000000 0.000000 
62.376705 -50.168221 60.277206 0.000000 0.000000 0.000000 
64.801811 -46.489082 58.503750 0.000000 0.000000 0.000000 
66.039246 -47.726517 62.003750 0.000000 0.000000 0.000000 
64.843285 -52.634785 67.253746 0.000000 0.000000 0.000000 
61.172440 -55.068188 65.503746 0.000000 0.000000 0.000000 
62.409874 -56.305626 69.003746 0.000000 0.000000 0.000000 
63.614143 -51.405655 63.777206 0.000000 0.000000 0.000000 
64.219124 -52.010632 67.724419 0.000000 0.000000 0.000000 
64.834991 -52.626488 67.230278 0.000000 0.000000 0.000000 
66.072433 -53.863926 70.730278 0.000000 0.000000 0.000000 
67.276680 -48.963951 65.503754 0.000000 0.000000 0.000000 
68.514122 -50.201389 69.003754 0.000000 0.000000 0.000000 
67.218605 -42.801655 56.706833 0.000000 0.000000 0.000000 
67.284973 -55.076469 74.159897 0.000000 0.000000 0.000000 
69.693481 -45.276527 63.706833 0.000000 0.000000 0.000000 
72.168358 -47.751396 70.706833 0.000000 0.000000 0.000000 
70.939217 -46.522255 67.230293 0.000000 0.000000 0.000000 
72.176651 -47.759693 70.730293 0.000000 0.000000 0.000000 
79.493446 -42.868000 74.159920 0.000000 0.000000 0.000000 
45.077492 -32.869003 11.347542 0.000000 0.000000 0.000000 
47.552357 -35.343868 18.347553 0.000000 0.000000 0.000000 
46.323219 -34.114731 14.871014 0.000000 0.000000 0.000000 
47.560654 -35.352165 18.371019 0.000000 0.000000 0.000000 
49.960899 -25.543922 7.894485 0.000000 0.000000 0.000000 
46.290058 -27.977329 6.144486 0.000000 0.000000 0.000000 
47.527485 -29.214756 9.644472 0.000000 0.000000 0.000000 
48.731750 -24.314775 4.417945 0.000000 0.000000 0.000000 
49.969193 -25.552216 7.917941 0.000000 0.000000 0.000000 
52.394299 -21.873081 6.144488 0.000000 0.000000 0.000000 
53.631729 -23.110512 9.644472 0.000000 0.000000 0.000000 
52.435760 -28.018784 14.894481 0.000000 0.000000 0.000000 
48.764919 -30.452192 13.144477 0.000000 0.000000 0.000000 
50.002354 -31.689625 16.644484 0.000000 0.000000 0.000000 
51.206627 -26.789650 11.417938 0.000000 0.000000 0.000000 
51.811615 -27.394640 15.365149 0.000000 0.000000 0.000000 
52.427464 -28.010490 14.871014 0.000000 0.000000 0.000000 
53.664898 -29.247923 18.371019 0.000000 0.000000 0.000000 
54.869164 -24.347946 13.144477 0.000000 0.000000 0.000000 
56.106598 -25.585377 16.644484 0.000000 0.000000 0.000000 
57.285980 -20.660513 11.347542 0.000000 0.000000 0.000000 
59.760845 -23.135380 18.347553 0.000000 0.000000 0.000000 
58.531708 -21.906244 14.871014 0.000000 0.000000 0.000000 
59.769142 -23.143677 18.371019 0.000000 0.000000 0.000000 
50.027225 -37.818737 25.347567 0.000000 0.000000 0.000000 
46.356384 -40.252144 23.597561 0.000000 0.000000 0.000000 
47.593819 -41.489578 27.097569 0.000000 0.000000 0.000000 
48.798088 -36.589600 21.871025 0.000000 0.000000 0.000000 
50.035519 -37.827030 25.371033 0.000000 0.000000 0.000000 
52.460632 -34.147896 23.597561 0.000000 0.000000 0.000000 
53.698063 -35.385330 27.097569 0.000000 0.000000 0.000000 
52.502094 -40.293606 32.347576 0.000000 0.000000 0.000000 
48.831253 -42.727013 30.597572 0.000000 0.000000 0.000000 
50.068684 -43.964447 34.097584 0.000000 0.000000 0.000000 
51.272953 -39.064465 28.871037 0.000000 0.000000 0.000000 
51.877953 -39.669464 32.818237 0.000000 0.000000 0.000000 
52.493793 -40.285309 32.324112 0.000000 0.000000 0.000000 
53.731224 -41.522747 35.824127 0.000000 0.000000 0.000000 
54.935497 -36.622765 30.597572 0.000000 0.000000 0.000000 
56.172932 -37.860199 34.097580 0.000000 0.000000 0.000000 
54.910629 -30.493650 21.894493 0.000000 0.000000 0.000000 
51.239788 -32.927059 20.144489 0.000000 0.000000 0.000000 
51.844784 -33.532055 24.091694 0.000000 0.000000 0.000000 
53.049049 -28.632074 18.865152 0.000000 0.000000 0.000000 
54.286484 -29.869507 22.365156 0.000000 0.000000 0.000000 
54.902332 -30.485357 21.871025 0.000000 0.000000 0.000000 
56.139763 -31.722790 25.371033 0.000000 0.000000 0.000000 
57.344032 -26.822813 20.144489 0.000000 0.000000 0.000000 
57.949028 -27.427809 24.091694 0.000000 0.000000 0.000000 
56.753059 -32.336082 29.341700 0.000000 0.000000 0.000000 
53.082218 -34.769489 27.591698 0.000000 0.000000 0.000000 
54.319653 -36.006924 31.091702 0.000000 0.000000 0.000000 
55.523918 -31.106945 25.865158 0.000000 0.000000 0.000000 
56.761353 -32.344379 29.365162 0.000000 0.000000 0.000000 
57.377197 -32.960224 28.871037 0.000000 0.000000 0.000000 
57.982197 -33.565224 32.818237 0.000000 0.000000 0.000000 
59.186462 -28.665245 27.591698 0.000000 0.000000 0.000000 
60.423897 -29.902679 31.091702 0.000000 0.000000 0.000000 
57.352310 -32.935333 28.800640 0.000000 0.000000 0.000000 
59.827175 -35.410198 35.800652 0.000000 0.000000 0.000000 
58.598042 -34.181065 32.324108 0.000000 0.000000 0.000000 
59.835476 -35.418499 35.824116 0.000000 0.000000 0.000000 
62.235714 -25.610247 25.347567 0.000000 0.000000 0.000000 
58.564873 -28.043657 23.597561 0.000000 0.000000 0.000000 
59.802307 -29.281090 27.097569 0.000000 0.000000 0.000000 
61.006577 -24.381111 21.871025 0.000000 0.000000 0.000000 
62.244007 -25.618544 25.371033 0.000000 0.000000 0.000000 
64.669121 -21.939411 23.597561 0.000000 0.000000 0.000000 
65.906555 -23.176844 27.097569 0.000000 0.000000 0.000000 
64.710579 -28.085117 32.347576 0.000000 0.000000 0.000000 
61.039742 -30.518524 30.597572 0.000000 0.000000 0.000000 
62.277176 -31.755959 34.097580 0.000000 0.000000 0.000000 
63.481441 -26.855978 28.871037 0.000000 0.000000 0.000000 
64.086441 -27.460979 32.818237 0.000000 0.000000 0.000000 
64.702286 -28.076818 32.324112 0.000000 0.000000 0.000000 
65.939720 -29.314255 35.824116 0.000000 0.000000 0.000000 
67.143990 -24.414278 30.597572 0.000000 0.000000 0.000000 
68.381424 -25.651712 34.097580 0.000000 0.000000 0.000000 
54.844288 -18.218824 4.441402 0.000000 0.000000 0.000000 
51.173447 -20.652229 2.691402 0.000000 0.000000 0.000000 
51.778442 -21.257223 6.638606 0.000000 0.000000 0.000000 
51.886070 -15.260609 1.000000 0.000000 0.000000 0.000000 
54.220135 -17.594675 4.912065 0.000000 0.000000 0.000000 
54.835995 -18.210533 4.417945 0.000000 0.000000 0.000000 
56.073437 -19.447973 7.917941 0.000000 0.000000 0.000000 
57.277691 -14.547984 2.691402 0.000000 0.000000 0.000000 
57.882683 -15.152977 6.638608 0.000000 0.000000 0.000000 
56.686722 -20.061258 11.888607 0.000000 0.000000 0.000000 
53.015877 -22.494659 10.138608 0.000000 0.000000 0.000000 
54.253315 -23.732098 13.638610 0.000000 0.000000 0.000000 
55.457573 -18.832111 8.412066 0.000000 0.000000 0.000000 
56.695015 -20.069555 11.912070 0.000000 0.000000 0.000000 
57.310863 -20.685404 11.417941 0.000000 0.000000 0.000000 
57.915859 -21.290398 15.365149 0.000000 0.000000 0.000000 
59.120125 -16.390419 10.138606 0.000000 0.000000 0.000000 
60.357559 -17.627855 13.638608 0.000000 0.000000 0.000000 
54.938194 -6.104244 1.000000 0.000000 0.000000 0.000000 
51.886070 -9.156365 1.000000 0.000000 0.000000 0.000000 
51.886070 -9.156365 1.000000 0.000000 0.000000 0.000000 
51.886070 -3.052122 1.000000 0.000000 0.000000 0.000000 
51.886070 -3.052122 1.000000 0.000000 0.000000 0.000000 
57.990314 -9.156365 1.000000 0.000000 0.000000 0.000000 
60.907963 -7.669743 4.925225 0.000000 0.000000 0.000000 
58.170261 -2.960435 2.086520 0.000000 0.000000 0.000000 
58.932579 -2.572012 6.033736 0.000000 0.000000 0.000000 
61.145473 -2.941464 9.641700 0.000000 0.000000 0.000000 
57.899269 -15.169565 6.685523 0.000000 0.000000 0.000000 
58.264484 0.197855 7.358176 0.000000 0.000000 0.000000 
62.467220 -6.875258 8.425230 0.000000 0.000000 0.000000 
64.026474 -6.080779 11.925225 0.000000 0.000000 0.000000 
60.491833 -1.777530 9.533739 0.000000 0.000000 0.000000 
62.051094 -0.983044 13.033736 0.000000 0.000000 0.000000 
62.169388 -13.335434 7.894487 0.000000 0.000000 0.000000 
58.498543 -15.768838 6.144488 0.000000 0.000000 0.000000 
59.735973 -17.006268 9.644472 0.000000 0.000000 0.000000 
60.940239 -12.106289 4.417945 0.000000 0.000000 0.000000 
62.177677 -13.343727 7.917943 0.000000 0.000000 0.000000 
64.224129 -10.172008 6.326578 0.000000 0.000000 0.000000 
65.840225 -10.902024 9.644472 0.000000 0.000000 0.000000 
64.644249 -15.810297 14.894481 0.000000 0.000000 0.000000 
60.973408 -18.243704 13.144477 0.000000 0.000000 0.000000 
62.210842 -19.481136 16.644484 0.000000 0.000000 0.000000 
63.415112 -14.581161 11.417939 0.000000 0.000000 0.000000 
64.020103 -15.186155 15.365147 0.000000 0.000000 0.000000 
64.635956 -15.802002 14.871014 0.000000 0.000000 0.000000 
65.873390 -17.039434 18.371019 0.000000 0.000000 0.000000 
67.077660 -12.139459 13.144477 0.000000 0.000000 0.000000 
68.315086 -13.376891 16.644484 0.000000 0.000000 0.000000 
63.278633 -8.075114 6.545628 0.000000 0.000000 0.000000 
62.317551 -9.870047 3.203238 0.000000 0.000000 0.000000 
63.932262 -9.239058 6.653574 0.000000 0.000000 0.000000 
60.397625 -4.935804 4.262102 0.000000 0.000000 0.000000 
61.956894 -4.141316 7.762089 0.000000 0.000000 0.000000 
63.963451 -10.130722 5.899541 0.000000 0.000000 0.000000 
65.895927 -10.436787 9.065310 0.000000 0.000000 0.000000 
62.624996 -6.911172 6.437685 0.000000 0.000000 0.000000 
64.184250 -6.116695 9.937640 0.000000 0.000000 0.000000 
66.397141 -6.486153 13.545612 0.000000 0.000000 0.000000 
64.694565 -8.850644 10.600797 0.000000 0.000000 0.000000 
66.253838 -8.056160 14.100798 0.000000 0.000000 0.000000 
63.516159 -3.346832 11.262076 0.000000 0.000000 0.000000 
64.278450 -2.958422 15.209305 0.000000 0.000000 0.000000 
67.718872 -10.419952 12.329140 0.000000 0.000000 0.000000 
69.278130 -9.625473 15.829147 0.000000 0.000000 0.000000 
65.743500 -5.322213 13.437643 0.000000 0.000000 0.000000 
67.302750 -4.527733 16.937651 0.000000 0.000000 0.000000 
59.161594 -22.536129 18.888613 0.000000 0.000000 0.000000 
55.490749 -24.969532 17.138615 0.000000 0.000000 0.000000 
56.728184 -26.206966 20.638618 0.000000 0.000000 0.000000 
57.932449 -21.306990 15.412074 0.000000 0.000000 0.000000 
59.153294 -22.527832 18.865152 0.000000 0.000000 0.000000 
60.390728 -23.765266 22.365156 0.000000 0.000000 0.000000 
61.594994 -18.865290 17.138613 0.000000 0.000000 0.000000 
62.832428 -20.102724 20.638617 0.000000 0.000000 0.000000 
61.636463 -25.010998 25.888622 0.000000 0.000000 0.000000 
57.965618 -27.444403 24.138620 0.000000 0.000000 0.000000 
61.628162 -25.002703 25.865158 0.000000 0.000000 0.000000 
62.865597 -26.240137 29.365162 0.000000 0.000000 0.000000 
64.069870 -21.340160 24.138618 0.000000 0.000000 0.000000 
64.264000 -1.352492 16.641693 0.000000 0.000000 0.000000 
65.585754 -5.286303 15.425238 0.000000 0.000000 0.000000 
63.610352 -0.188559 16.533735 0.000000 0.000000 0.000000 
65.169640 0.605918 20.033747 0.000000 0.000000 0.000000 
67.382538 0.236454 23.641724 0.000000 0.000000 0.000000 
67.119118 -18.285164 21.894493 0.000000 0.000000 0.000000 
63.448277 -20.718571 20.144489 0.000000 0.000000 0.000000 
64.053268 -21.323566 24.091694 0.000000 0.000000 0.000000 
65.257538 -16.423590 18.865150 0.000000 0.000000 0.000000 
66.494972 -17.661024 22.365154 0.000000 0.000000 0.000000 
67.110825 -18.276869 21.871025 0.000000 0.000000 0.000000 
68.348259 -19.514301 25.371033 0.000000 0.000000 0.000000 
69.552521 -14.614326 20.144489 0.000000 0.000000 0.000000 
70.157516 -15.219321 24.091694 0.000000 0.000000 0.000000 
68.961548 -20.127596 29.341700 0.000000 0.000000 0.000000 
65.290710 -22.561003 27.591698 0.000000 0.000000 0.000000 
66.528145 -23.798437 31.091702 0.000000 0.000000 0.000000 
67.732407 -18.898460 25.865156 0.000000 0.000000 0.000000 
68.969849 -20.135895 29.365160 0.000000 0.000000 0.000000 
69.585693 -20.751736 28.871037 0.000000 0.000000 0.000000 
70.190689 -21.356737 32.818237 0.000000 0.000000 0.000000 
71.394958 -16.456758 27.591698 0.000000 0.000000 0.000000 
72.632393 -17.694193 31.091702 0.000000 0.000000 0.000000 
68.718712 -5.303257 20.992840 0.000000 0.000000 0.000000 
67.813095 -7.261681 17.600803 0.000000 0.000000 0.000000 
69.372353 -6.467200 21.100809 0.000000 0.000000 0.000000 
65.837723 -2.163938 18.709305 0.000000 0.000000 0.000000 
67.396980 -1.369458 22.209312 0.000000 0.000000 0.000000 
70.040443 -9.237056 19.776367 0.000000 0.000000 0.000000 
71.599701 -8.442576 23.276375 0.000000 0.000000 0.000000 
68.862007 -3.733253 20.437658 0.000000 0.000000 0.000000 
70.421265 -2.938772 23.937664 0.000000 0.000000 0.000000 
71.837227 -3.714297 27.992851 0.000000 0.000000 0.000000 
70.931610 -5.672719 24.600815 0.000000 0.000000 0.000000 
68.956238 -0.574978 25.709316 0.000000 0.000000 0.000000 
70.515495 0.219503 29.209322 0.000000 0.000000 0.000000 
73.158958 -7.648096 26.776379 0.000000 0.000000 0.000000 
74.718216 -6.853615 30.276384 0.000000 0.000000 0.000000 
71.183586 -2.550354 27.884882 0.000000 0.000000 0.000000 
72.742836 -1.755875 31.384890 0.000000 0.000000 0.000000 
67.152252 -30.526798 39.253723 0.000000 0.000000 0.000000 
69.560791 -20.726845 28.800640 0.000000 0.000000 0.000000 
72.035660 -23.201710 35.800652 0.000000 0.000000 0.000000 
70.806519 -21.972578 32.324108 0.000000 0.000000 0.000000 
72.043961 -23.210012 35.824116 0.000000 0.000000 0.000000 
79.360748 -18.318310 39.253723 0.000000 0.000000 0.000000 
67.789513 -10.736702 12.167393 0.000000 0.000000 0.000000 
71.654449 -11.348850 18.498974 0.000000 0.000000 0.000000 
69.734940 -11.044828 15.354408 0.000000 0.000000 0.000000 
71.667397 -11.350903 18.520191 0.000000 0.000000 0.000000 
67.268150 -10.654125 11.313290 0.000000 0.000000 0.000000 
70.851822 -10.436905 17.896736 0.000000 0.000000 0.000000 
69.474251 -11.003539 14.927354 0.000000 0.000000 0.000000 
71.406715 -11.309614 18.093140 0.000000 0.000000 0.000000 
69.530090 -6.503106 19.113209 0.000000 0.000000 0.000000 
74.444199 -13.401763 25.347565 0.000000 0.000000 0.000000 
70.773354 -15.835169 23.597561 0.000000 0.000000 0.000000 
72.010788 -17.072601 27.097569 0.000000 0.000000 0.000000 
73.215057 -12.172627 21.871023 0.000000 0.000000 0.000000 
74.452492 -13.410063 25.371029 0.000000 0.000000 0.000000 
75.245743 -11.917659 24.382269 0.000000 0.000000 0.000000 
77.178207 -12.223733 27.548058 0.000000 0.000000 0.000000 
76.919060 -15.876630 32.347576 0.000000 0.000000 0.000000 
73.248222 -18.310036 30.597572 0.000000 0.000000 0.000000 
74.485657 -19.547470 34.097580 0.000000 0.000000 0.000000 
75.689926 -14.647494 28.871035 0.000000 0.000000 0.000000 
76.294930 -15.252498 32.818237 0.000000 0.000000 0.000000 
76.910767 -15.868336 32.324108 0.000000 0.000000 0.000000 
78.148209 -17.105770 35.824116 0.000000 0.000000 0.000000 
79.110672 -12.529807 30.713846 0.000000 0.000000 0.000000 
80.589905 -13.443226 34.097580 0.000000 0.000000 0.000000 
73.970337 -8.847944 24.896749 0.000000 0.000000 0.000000 
73.064728 -10.806366 21.504713 0.000000 0.000000 0.000000 
74.623985 -10.011885 25.004719 0.000000 0.000000 0.000000 
71.089348 -5.708627 22.613216 0.000000 0.000000 0.000000 
72.648605 -4.914145 26.113222 0.000000 0.000000 0.000000 
74.985062 -11.876370 23.955217 0.000000 0.000000 0.000000 
76.851326 -11.987265 27.180285 0.000000 0.000000 0.000000 
74.875946 -6.889524 28.288788 0.000000 0.000000 0.000000 
77.088852 -7.258986 31.896763 0.000000 0.000000 0.000000 
76.183243 -9.217405 28.504726 0.000000 0.000000 0.000000 
76.945557 -8.828987 32.451946 0.000000 0.000000 0.000000 
74.207863 -4.119666 29.613230 0.000000 0.000000 0.000000 
75.767120 -3.325184 33.113235 0.000000 0.000000 0.000000 
78.410583 -11.192784 30.680290 0.000000 0.000000 0.000000 
79.969841 -10.398304 34.180298 0.000000 0.000000 0.000000 
76.435204 -6.095045 31.788795 0.000000 0.000000 0.000000 
77.994469 -5.300564 35.288799 0.000000 0.000000 0.000000 
78.811127 -12.482363 30.223122 0.000000 0.000000 0.000000 
82.676056 -13.094512 36.554695 0.000000 0.000000 0.000000 
80.756546 -12.790489 33.410133 0.000000 0.000000 0.000000 
82.689011 -13.096563 36.575920 0.000000 0.000000 0.000000 
78.289764 -12.399787 29.369019 0.000000 0.000000 0.000000 
81.543541 -11.209742 36.247890 0.000000 0.000000 0.000000 
82.197189 -12.373683 36.355862 0.000000 0.000000 0.000000 
54.976967 -42.768478 39.347584 0.000000 0.000000 0.000000 
51.306122 -45.201881 37.597584 0.000000 0.000000 0.000000 
51.911118 -45.806877 41.544788 0.000000 0.000000 0.000000 
53.115387 -40.906898 36.318245 0.000000 0.000000 0.000000 
54.352821 -42.144333 39.818249 0.000000 0.000000 0.000000 
54.968662 -42.760181 39.324131 0.000000 0.000000 0.000000 
56.206097 -43.997616 42.824131 0.000000 0.000000 0.000000 
57.410362 -39.097630 37.597588 0.000000 0.000000 0.000000 
58.015366 -39.702633 41.544785 0.000000 0.000000 0.000000 
56.819393 -44.610905 46.794796 0.000000 0.000000 0.000000 
53.148552 -47.044312 45.044792 0.000000 0.000000 0.000000 
54.385986 -48.281746 48.544796 0.000000 0.000000 0.000000 
55.590256 -43.381771 43.318253 0.000000 0.000000 0.000000 
56.827690 -44.619205 46.818256 0.000000 0.000000 0.000000 
57.443539 -45.235054 46.324127 0.000000 0.000000 0.000000 
58.048531 -45.840046 50.271336 0.000000 0.000000 0.000000 
59.252800 -40.940067 45.044788 0.000000 0.000000 0.000000 
60.490234 -42.177505 48.544792 0.000000 0.000000 0.000000 
59.227932 -34.810955 36.341705 0.000000 0.000000 0.000000 
55.557087 -37.244358 34.591705 0.000000 0.000000 0.000000 
56.794518 -38.481789 38.091713 0.000000 0.000000 0.000000 
57.998787 -33.581814 32.865166 0.000000 0.000000 0.000000 
59.219631 -34.802658 36.318241 0.000000 0.000000 0.000000 
60.457069 -36.040096 39.818245 0.000000 0.000000 0.000000 
61.661331 -31.140114 34.591705 0.000000 0.000000 0.000000 
62.898769 -32.377548 38.091705 0.000000 0.000000 0.000000 
61.702789 -37.285816 43.341721 0.000000 0.000000 0.000000 
61.694500 -37.277527 43.318253 0.000000 0.000000 0.000000 
62.931931 -38.514961 46.818256 0.000000 0.000000 0.000000 
62.302048 -37.885078 42.800671 0.000000 0.000000 0.000000 
58.631210 -40.318489 41.050667 0.000000 0.000000 0.000000 
59.868645 -41.555927 44.550667 0.000000 0.000000 0.000000 
61.072906 -36.655933 39.324131 0.000000 0.000000 0.000000 
62.310341 -37.893368 42.824131 0.000000 0.000000 0.000000 
64.735451 -34.214226 41.050659 0.000000 0.000000 0.000000 
65.972885 -35.451668 44.550674 0.000000 0.000000 0.000000 
64.776924 -40.359951 49.800671 0.000000 0.000000 0.000000 
61.106087 -42.793362 48.050667 0.000000 0.000000 0.000000 
62.343525 -44.030800 51.550667 0.000000 0.000000 0.000000 
63.547783 -39.130806 46.324127 0.000000 0.000000 0.000000 
64.152779 -39.735802 50.271332 0.000000 0.000000 0.000000 
64.768631 -40.351662 49.777210 0.000000 0.000000 0.000000 
66.006065 -41.589100 53.277210 0.000000 0.000000 0.000000 
67.210327 -36.689106 48.050674 0.000000 0.000000 0.000000 
68.447762 -37.926544 51.550674 0.000000 0.000000 0.000000 
67.185448 -30.559984 39.347588 0.000000 0.000000 0.000000 
63.514610 -32.993393 37.597584 0.000000 0.000000 0.000000 
64.119614 -33.598396 41.544785 0.000000 0.000000 0.000000 
65.323875 -28.698414 36.318241 0.000000 0.000000 0.000000 
66.561317 -29.935850 39.818245 0.000000 0.000000 0.000000 
67.177155 -30.551685 39.324123 0.000000 0.000000 0.000000 
68.414589 -31.789120 42.824131 0.000000 0.000000 0.000000 
69.618858 -26.889145 37.597584 0.000000 0.000000 0.000000 
70.223862 -27.494150 41.544785 0.000000 0.000000 0.000000 
69.027878 -32.402416 46.794796 0.000000 0.000000 0.000000 
65.357040 -34.835827 45.044792 0.000000 0.000000 0.000000 
66.594475 -36.073261 48.544796 0.000000 0.000000 0.000000 
67.798752 -31.173285 43.318249 0.000000 0.000000 0.000000 
69.036179 -32.410717 46.818256 0.000000 0.000000 0.000000 
69.652023 -33.026558 46.324135 0.000000 0.000000 0.000000 
70.257027 -33.631557 50.271336 0.000000 0.000000 0.000000 
71.461296 -28.731585 45.044788 0.000000 0.000000 0.000000 
72.698723 -29.969015 48.544796 0.000000 0.000000 0.000000 
59.294262 -47.085773 53.794804 0.000000 0.000000 0.000000 
55.623421 -49.519180 52.044800 0.000000 0.000000 0.000000 
56.860855 -50.756615 55.544807 0.000000 0.000000 0.000000 
59.285965 -47.077480 53.771339 0.000000 0.000000 0.000000 
60.523399 -48.314915 57.271343 0.000000 0.000000 0.000000 
61.727669 -43.414940 52.044800 0.000000 0.000000 0.000000 
62.965103 -44.652374 55.544804 0.000000 0.000000 0.000000 
61.769131 -49.560646 60.794811 0.000000 0.000000 0.000000 
61.760838 -49.552353 60.771347 0.000000 0.000000 0.000000 
62.998268 -50.789783 64.271355 0.000000 0.000000 0.000000 
64.177658 -39.760689 50.341728 0.000000 0.000000 0.000000 
66.652527 -42.235558 57.341736 0.000000 0.000000 0.000000 
67.251801 -42.834824 56.800671 0.000000 0.000000 0.000000 
63.580963 -45.268234 55.050667 0.000000 0.000000 0.000000 
64.185944 -45.873215 58.997879 0.000000 0.000000 0.000000 
65.390213 -40.973236 53.771336 0.000000 0.000000 0.000000 
66.627647 -42.210674 57.271339 0.000000 0.000000 0.000000 
67.243507 -42.826534 56.777210 0.000000 0.000000 0.000000 
68.480942 -44.063969 60.277210 0.000000 0.000000 0.000000 
69.685204 -39.163979 55.050674 0.000000 0.000000 0.000000 
70.290192 -39.768967 58.997879 0.000000 0.000000 0.000000 
69.094223 -44.677246 64.247887 0.000000 0.000000 0.000000 
65.423378 -47.110653 62.497883 0.000000 0.000000 0.000000 
66.660812 -48.348083 65.997887 0.000000 0.000000 0.000000 
67.865082 -43.448109 60.771343 0.000000 0.000000 0.000000 
69.102516 -44.685543 64.271347 0.000000 0.000000 0.000000 
69.718376 -45.301403 63.777214 0.000000 0.000000 0.000000 
70.323364 -45.906384 67.724426 0.000000 0.000000 0.000000 
71.527626 -41.006405 62.497883 0.000000 0.000000 0.000000 
72.765060 -42.243835 65.997887 0.000000 0.000000 0.000000 
71.502747 -34.877285 53.794804 0.000000 0.000000 0.000000 
67.831909 -37.310696 52.044800 0.000000 0.000000 0.000000 
69.069344 -38.548130 55.544804 0.000000 0.000000 0.000000 
71.494461 -34.868992 53.771339 0.000000 0.000000 0.000000 
72.731888 -36.106426 57.271343 0.000000 0.000000 0.000000 
73.936157 -31.206450 52.044800 0.000000 0.000000 0.000000 
75.173592 -32.443886 55.544804 0.000000 0.000000 0.000000 
73.977623 -37.352158 60.794811 0.000000 0.000000 0.000000 
73.969330 -37.343864 60.771347 0.000000 0.000000 0.000000 
75.206757 -38.581295 64.271355 0.000000 0.000000 0.000000 
64.111336 -27.485870 32.888626 0.000000 0.000000 0.000000 
64.103035 -27.477571 32.865166 0.000000 0.000000 0.000000 
66.586205 -29.960739 39.888634 0.000000 0.000000 0.000000 
71.436417 -22.602467 36.341705 0.000000 0.000000 0.000000 
67.765579 -25.035872 34.591705 0.000000 0.000000 0.000000 
69.003014 -26.273308 38.091705 0.000000 0.000000 0.000000 
70.207283 -21.373331 32.865162 0.000000 0.000000 0.000000 
71.428123 -22.594172 36.318241 0.000000 0.000000 0.000000 
72.665565 -23.831608 39.818245 0.000000 0.000000 0.000000 
73.869827 -18.931627 34.591705 0.000000 0.000000 0.000000 
75.107262 -20.169064 38.091705 0.000000 0.000000 0.000000 
73.911285 -25.077335 43.341713 0.000000 0.000000 0.000000 
73.903000 -25.069042 43.318249 0.000000 0.000000 0.000000 
75.140427 -26.306477 46.818253 0.000000 0.000000 0.000000 
74.955742 -2.125336 34.992863 0.000000 0.000000 0.000000 
76.277473 -6.059136 33.776390 0.000000 0.000000 0.000000 
77.836731 -5.264655 37.276398 0.000000 0.000000 0.000000 
74.302101 -0.961393 34.884892 0.000000 0.000000 0.000000 
75.861359 -0.166914 38.384899 0.000000 0.000000 0.000000 
78.074257 -0.536376 41.992874 0.000000 0.000000 0.000000 
77.420616 0.627567 41.884903 0.000000 0.000000 0.000000 
76.386154 -27.552204 50.341728 0.000000 0.000000 0.000000 
78.861023 -30.027073 57.341736 0.000000 0.000000 0.000000 
81.192780 1.052586 48.992882 0.000000 0.000000 0.000000 
69.627121 -33.001686 46.253754 0.000000 0.000000 0.000000 
72.102005 -35.476559 53.253754 0.000000 0.000000 0.000000 
70.872864 -34.247414 49.777210 0.000000 0.000000 0.000000 
72.110298 -35.484852 53.277210 0.000000 0.000000 0.000000 
