# .PCD v0.7 - Point Cloud Data file format
VERSION 0.7
FIELDS x y z
SIZE 4 4 4
TYPE F F F
COUNT 1 1 1
WIDTH 1618
HEIGHT 1
VIEWPOINT 0 0 0 1 0 0 0
POINTS 1618
DATA ascii
23.11516 24.179262 26.301144
23.393778 24.471903 29.372938
21.768698 25.442959 26.557775
22.032619 25.748919 29.62957
18.798607 22.800278 34.596809
18.221304 22.951368 32.777122
18.469896 23.269909 35.848919
16.999271 23.914385 33.053905
17.231934 24.24474 36.125702
20.284348 21.205971 33.091045
20.562965 21.498611 36.162842
22.296541 26.054876 32.701363
22.560465 26.360836 35.773159
18.865568 27.958775 28.361513
18.104967 28.167366 26.550623
18.321138 28.508738 29.622417
16.998226 28.897961 26.845003
17.19739 29.249531 29.916798
20.512178 26.511084 26.826164
20.760771 26.829624 29.897959
19.373497 27.398794 27.104374
19.606159 27.729151 30.176168
19.330893 28.619484 34.5051
18.537313 28.850115 32.694206
18.753485 29.191488 35.766003
17.396549 29.601099 32.98859
17.595711 29.952667 36.060387
21.009361 27.148165 32.969749
21.257954 27.466705 36.041546
19.83882 28.059502 33.247959
20.071482 28.389858 36.319756
25.274471 22.349739 28.473085
24.966986 22.337767 26.643606
25.272945 22.601688 29.715401
23.714207 23.714207 26.880844
24.000006 24.000006 29.952608
26.437908 20.645357 27.010483
26.756447 20.893946 30.082279
25.275993 22.09779 27.230768
25.581951 22.36171 30.302563
25.886389 22.877584 34.616673
25.578905 22.86561 32.787193
25.884865 23.129534 35.85899
24.285803 24.285803 33.024368
24.571602 24.571602 36.096134
27.074989 21.142538 33.154068
27.39353 21.39113 36.225864
25.887911 22.625631 33.374355
26.193871 22.889555 36.446152
22.918041 24.849264 28.956816
22.544197 24.873688 27.131578
22.815628 25.173166 30.203346
23.475277 25.434546 35.100403
23.087057 25.472643 33.275108
23.358488 25.77212 36.346867
22.100727 26.902546 36.608658
19.32645 23.412197 40.740395
18.718487 23.588449 38.920708
18.967079 23.90699 41.992504
17.464596 24.575096 39.197491
17.697258 24.905449 42.269287
20.841583 21.791252 39.234631
21.120201 22.083893 42.306427
22.824387 26.666796 38.844948
23.088308 26.972755 41.916744
19.854296 24.024115 46.883984
19.21567 24.225531 45.064293
19.464262 24.544071 48.136089
17.92992 25.235804 45.341076
18.162582 25.566158 48.412872
21.398817 22.376532 45.378216
21.677435 22.669172 48.450012
23.35223 27.278713 44.988533
20.406801 23.864143 48.706646
19.796217 29.280193 40.648685
18.969656 29.53286 38.837791
19.185829 29.874233 41.909588
17.794872 30.304235 39.132175
17.994034 30.655806 42.203972
21.506546 27.785248 39.113335
21.755136 28.103788 42.185131
20.304144 28.720211 39.391544
20.536806 29.050566 42.463341
20.261539 29.940901 46.792271
16.7733 26.064432 45.627693
16.989471 26.405806 48.69949
18.193195 31.007372 45.275761
18.392357 31.358942 48.347557
22.003727 28.422327 45.25692
22.252319 28.74087 48.328716
20.769466 29.380919 45.53513
21.002129 29.711275 48.606926
26.498306 23.405428 40.760258
26.190823 23.393456 38.930779
26.49678 23.657375 42.002575
24.857399 24.857399 39.167892
25.14522 25.141073 42.239666
27.71207 21.639721 39.297653
28.030611 21.888313 42.36945
26.499828 23.153475 39.517941
26.805786 23.417397 42.589737
27.110226 23.933271 46.903843
26.80274 23.921299 45.074364
27.1087 24.185221 48.14616
25.43786 25.419689 45.311455
25.730501 25.698307 48.383251
28.34915 22.136902 45.441242
28.66769 22.385494 48.513039
27.111748 23.68132 45.661526
27.417707 23.945244 48.733322
24.032509 26.019825 41.243988
23.629917 26.071596 39.418625
23.901348 26.371075 42.490395
22.364649 27.208506 39.680447
22.628572 27.514465 42.752243
25.326014 24.476603 39.751892
25.618654 24.755219 42.823689
24.589743 26.605108 47.387573
24.172779 26.670551 45.562153
24.444208 26.970028 48.633911
22.892492 27.820423 45.824032
23.156414 28.126381 48.895828
25.911293 25.033834 45.895477
26.203934 25.312452 48.967274
16.809868 29.322903 28.949986
15.870263 29.582462 27.146023
16.069424 29.934029 30.217817
17.208185 30.026037 35.093571
16.268585 30.285597 33.289608
16.467747 30.637167 36.361404
19.026968 29.149052 36.605778
14.994061 30.38191 29.560696
15.357402 31.103745 35.704281
20.921999 26.634747 29.48411
21.419182 27.271832 35.627693
17.60651 30.729176 41.23716
16.666906 30.988733 39.433193
16.866068 31.340303 42.50499
15.73633 31.507496 39.741203
15.918001 31.868416 42.813
19.243141 29.490425 39.677567
19.459312 29.831797 42.749363
18.004833 31.432314 47.380745
17.065229 31.691872 45.576778
17.264391 32.043442 48.648575
16.099672 32.229332 45.884789
16.281347 32.590248 48.956585
19.675484 30.17317 45.821152
19.891657 30.514544 48.892948
15.720745 31.825581 41.847866
16.084085 32.547413 47.991455
21.916361 27.908916 41.771278
22.413546 28.545998 47.914867
27.81806 19.262655 29.225145
28.478771 19.727982 35.368732
28.630518 19.796082 36.610031
26.50441 22.397619 35.790993
29.139481 20.193302 41.512318
28.960873 20.028744 39.68182
29.291229 20.261406 42.753616
29.80019 20.658627 47.655903
29.621582 20.494066 45.825405
29.951937 20.72673 48.897202
28.508823 22.058208 46.030128
28.827366 22.306801 49.101925
27.116325 22.925463 41.934582
27.728241 23.453304 48.078167
52.53315 1.7600271 29.851404
52.768661 5.255414 30.415539
57.24614 1.945938 28.686171
55.732956 1.1513751 28.850266
58.781372 1.163142 28.55571
58.781887 3.1727369 28.741102
57.31768 5.7421842 29.421238
57.404953 7.6564312 30.317989
62.471443 1.889644 29.033443
61.580597 1.153296 28.798559
62.30986 5.5952029 29.713905
66.625031 1.60815 30.569876
66.375206 4.8580279 31.011023
62.092834 7.6486812 30.627911
50.974907 2.3560219 30.678511
50.275311 1.160971 30.990896
49.144608 1.249333 31.752096
50.371849 3.1727369 31.148983
49.289474 3.467803 31.942186
52.52066 1.218605 29.82148
51.548336 1.315028 30.290234
52.600815 3.300225 30.013481
51.680241 3.825949 30.565983
48.007065 2.8955021 32.872555
47.702667 1.3312449 32.952602
46.100784 1.4042259 34.657536
47.923008 3.914351 33.187595
46.399643 4.3121972 34.917633
50.186775 1.4079781 31.054829
52.340523 1.39595 37.254066
50.395252 4.3326588 31.396227
52.089863 4.2669039 36.957542
51.430923 6.2583852 31.425274
49.610214 5.6738381 32.363049
49.997524 7.2143569 32.871246
52.788254 5.4237518 30.462471
51.933643 6.0948 31.095722
53.050018 7.136086 31.089502
52.276009 7.6564312 31.811436
49.347569 8.1349621 34.302197
48.338402 6.1759109 33.630604
47.07967 6.9867592 35.509464
48.914345 7.7614722 34.24485
48.008118 8.4484978 36.317501
50.872997 7.0284309 32.178558
51.530888 6.893621 36.29261
51.526772 8.4754524 33.249146
50.865616 8.3371696 35.419678
56.89233 2.6018341 28.808222
55.528454 1.255639 28.902679
54.800114 1.358892 29.086679
55.587448 3.5021949 29.140886
54.8843 4.0650668 29.426615
58.737103 1.2695791 28.561541
58.582455 1.3758399 28.572847
58.749981 3.578167 28.820818
58.600685 4.157424 28.939859
56.891968 2.736413 34.934143
55.853722 1.429069 35.332191
54.841675 1.3293591 35.712955
55.711311 4.4476519 34.935558
54.703495 3.9040761 35.424091
58.740631 1.40848 34.882374
58.585976 1.302215 34.893684
58.72076 4.3353472 34.482269
58.571453 3.756083 34.601315
57.071747 7.138556 30.046757
55.716782 5.72509 29.663111
55.057087 6.4830589 30.124315
55.866665 7.2143569 30.268318
55.275333 8.0141706 31.00556
58.777645 5.8382611 29.377758
58.639732 6.671185 29.726059
58.785286 7.2143569 29.967558
58.690636 8.2010984 30.750969
56.668732 7.4736471 33.514603
55.336243 7.4190869 33.890995
54.44471 6.1549649 34.883091
54.885464 8.5844841 32.635574
54.086781 7.7343411 34.134834
58.675179 7.0337791 33.564644
58.541656 6.0948 34.001251
58.61306 8.4754524 32.313988
58.502987 7.6341891 33.222813
49.584473 2.6954429 40.700085
49.873795 1.428046 40.366684
49.078831 1.416898 42.544228
49.507965 4.4420161 40.159409
48.717262 4.2390389 42.435822
50.877686 1.321884 38.792294
49.37923 1.270123 41.548344
50.622208 3.8633161 38.612095
49.132881 3.5811319 41.464718
48.184746 2.517235 46.642963
48.501667 1.386201 45.486576
47.93605 1.356804 48.505257
48.154011 4.1422272 45.421257
47.612419 4.0226541 48.444454
48.636715 1.201488 44.818863
48.071098 1.172091 47.837543
48.391979 3.519531 44.772884
47.840683 3.4245801 47.794254
48.371124 7.298255 40.156448
48.548897 7.405067 39.616005
47.892586 6.839272 42.254379
47.38028 8.5844841 38.953876
46.864697 8.2866325 42.019367
50.148193 6.0948 38.277756
48.604115 5.8426709 41.28521
49.499836 7.6564312 37.820442
48.047184 7.2143569 41.096153
47.146492 6.715137 46.447899
47.408863 6.6211329 45.281261
46.924255 6.4177032 48.315163
46.446747 8.1140718 45.100502
45.987019 8.0141706 48.139076
47.926952 5.5519381 44.685513
47.399139 5.4327598 47.711296
47.293808 7.0716619 44.566563
46.865139 6.8238101 47.61097
54.489746 2.105531 35.808685
53.384159 1.235502 36.499653
50.635948 1.1579601 39.144714
53.266911 3.392451 36.307655
58.43132 1.195951 34.904995
58.422153 3.176826 34.720364
48.491726 1.937129 45.314468
54.132927 6.0948 35.062733
53.00124 5.5615268 35.872589
52.650566 7.2143569 35.298347
58.399605 5.2401199 34.266563
47.871349 5.4327598 45.197914
51.967133 8.0308628 32.303329
52.530399 8.2866325 32.343246
49.866646 8.5844841 34.855789
49.258938 8.2866325 34.61235
48.262688 8.5844841 36.539059
51.68047 8.5844841 33.500835
50.554409 8.5844841 35.01133
50.063416 8.6193485 35.065639
57.239822 8.4552155 31.206974
55.418594 8.4754524 31.584019
58.710079 8.4754524 31.142347
56.524715 8.4754524 32.520462
54.808365 8.612134 32.420856
53.859825 8.2866325 33.660385
58.598431 8.5844841 32.019394
58.473045 8.2866325 32.619743
57.286694 8.5844841 31.530542
56.482426 8.5844841 32.22855
47.352489 8.4754524 39.700043
47.208939 8.608345 38.856792
46.322899 8.5709543 41.890938
49.018074 8.2866325 37.480637
46.040627 8.2866325 46.240131
45.967648 8.4754524 45.01049
45.400555 8.4754524 48.028893
47.083305 8.5844841 39.579445
45.700607 8.492877 46.17625
53.781597 7.6818771 34.328281
63.723949 2.526983 29.44223
61.84922 1.2584209 28.839565
62.490978 1.36204 28.995581
61.803329 3.5172541 29.083828
62.409321 4.0821929 29.339481
64.810143 1.2234139 29.690439
65.81176 1.320799 30.142637
64.732307 3.3264279 29.888653
65.684402 3.8573849 30.427008
63.427696 2.8508539 35.834377
61.603176 1.425252 35.269855
62.45396 1.3243361 35.562325
61.718689 4.4266019 34.868076
62.555283 3.8766639 35.263878
67.129807 1.414874 30.844849
65.052422 1.38783 37.04385
66.929199 4.370203 31.199087
65.30159 4.222805 36.757542
63.358482 6.8705192 30.518719
61.703163 5.747138 29.616972
62.240314 6.5178528 30.051231
61.589115 7.2143569 30.224014
62.034203 8.0141706 30.919235
64.551994 5.462779 30.347818
65.446808 6.0948 30.957546
64.298996 7.189445 30.992064
65.122459 7.6564312 31.681793
64.232422 7.925673 34.266479
62.017597 7.3663812 33.828384
62.741585 6.0990052 34.715122
62.4202 8.5788231 32.536816
62.997456 7.6616769 33.961456
66.463737 7.1048031 32.020992
65.850029 6.8045688 36.127361
65.854897 8.4812727 33.096062
66.54483 8.2866325 35.328999
68.788498 2.1639819 32.039597
67.247208 1.1678261 30.901659
68.335258 1.25683 31.629148
67.156029 3.1727369 31.06267
68.193138 3.508666 31.830687
70.186256 1.177038 33.139229
70.057945 3.1727369 33.272381
71.315834 2.644278 34.552322
69.746582 1.3399841 32.76395
71.487076 1.414176 34.578777
69.529289 3.961992 33.013634
71.163887 4.3664532 34.825043
71.34021 1.2498291 34.376808
72.734665 1.311496 36.339344
71.149719 3.470504 34.521976
72.476837 3.8066909 36.496769
68.315529 6.0948 32.710293
67.882126 5.7347422 32.271713
67.52449 7.2143569 32.778893
70.296669 7.2143569 35.328938
69.107475 6.273005 33.498325
70.414902 7.0972972 35.395779
68.516449 7.887238 34.177441
69.4422 8.4754524 36.136997
70.739029 5.6776099 34.857109
71.972458 6.0948 36.804729
70.251305 7.2143569 35.269402
71.295288 7.6564312 37.218193
66.766144 2.327204 38.646957
63.904842 1.2286609 36.275345
64.012306 3.35513 36.085598
66.619087 1.31197 38.602097
68.215256 1.25818 41.396961
66.859756 3.8092721 38.418705
68.448639 3.516052 41.313148
68.597572 2.2818761 47.705746
68.845207 1.241277 45.436695
68.298065 1.2192 48.865406
69.075859 3.423902 45.446896
68.551437 3.57673 48.91301
67.427002 6.155179 38.143356
64.258812 5.5058398 35.650299
64.598732 7.2143569 35.050076
67.329391 6.0948 38.060818
68.958321 5.745748 41.130127
67.960472 7.6564312 37.579933
69.53923 7.2143569 40.921528
69.406509 6.0948 47.857727
69.593292 5.6083231 45.469757
69.041489 5.6567712 49.005077
70.251518 7.2143569 45.498859
69.723488 7.221014 49.133209
74.145035 2.9701779 39.692192
67.656143 1.416671 40.131062
68.555412 1.378173 42.471535
68.015823 4.3798022 39.935688
68.91433 4.170177 42.382603
74.00631 1.359993 38.841873
74.914581 1.390195 41.966118
73.675682 4.0710721 38.960594
74.536484 4.235682 42.020969
68.896675 2.9617469 46.503918
68.856667 1.366758 45.274197
68.433121 1.403914 48.197693
69.214569 4.1079111 45.290012
68.795258 4.2142739 48.265732
75.168182 1.398357 45.390079
74.771553 1.409421 48.695461
74.778221 4.2801719 45.372845
74.404915 4.2366748 48.626575
71.725403 8.5327997 40.56105
68.852661 7.1235919 39.481133
69.687469 6.6972761 42.191044
69.994125 8.4974613 38.923431
70.708374 8.2356434 41.938091
72.995033 6.495327 39.205002
73.700165 6.8306489 42.1423
72.145905 8.0141706 39.509911
72.664307 8.2866325 42.29258
71.37381 8.5064211 46.849648
69.964409 6.5702572 45.323147
69.589462 6.7558041 48.414944
70.890671 8.0681658 45.364071
70.672615 8.2866325 48.618443
73.901108 6.9213119 45.334091
73.589546 6.8022308 48.473389
72.76516 8.3700323 45.283897
72.532326 8.2866325 48.274761
63.027863 8.2866325 31.492559
61.8965 8.4754524 31.499165
64.881462 8.2866325 32.219944
64.707115 8.5844841 33.428288
62.460903 8.59797 32.416927
63.185631 8.2866325 33.407158
65.7173 8.5844841 33.33902
66.864235 8.5450258 34.961983
62.931923 8.4754524 31.775152
64.776062 8.6014395 33.306534
67.718796 7.9529772 33.556519
69.366539 8.4754524 36.037708
68.17617 8.3607941 34.568432
69.207634 8.5844841 36.315739
70.79213 8.2866325 37.525429
69.131584 8.5844841 36.215942
68.268387 8.0141706 37.502251
68.42939 8.2866325 37.222607
70.47467 8.0141706 48.058411
71.32309 8.6193485 40.705513
70.206451 8.5844841 38.821877
71.052048 8.4754524 41.852943
71.58506 8.4754524 39.711292
72.123329 8.5671978 42.371056
71.867958 8.6193485 46.918617
71.427223 8.4754524 45.387787
70.994598 8.4861002 48.67894
72.304024 8.5844841 45.263523
72.116821 8.5212326 48.196697
71.32309 8.6193485 40.705513
71.867958 8.6193485 46.918617
29.553152 11.74934 51.763515
31.767435 3.0065639 52.532314
31.705359 1.401144 51.222134
32.109299 1.41106 54.293926
31.444595 4.2994642 51.254227
31.845617 4.3489251 54.326019
32.573368 3.0660131 58.675903
32.513237 1.420976 57.365719
32.917179 1.430892 60.437519
32.246643 4.398386 57.397812
32.647667 4.4478478 60.469608
30.641119 8.9567356 52.665459
30.624092 8.1246443 50.853569
29.721745 11.017666 50.957428
30.09873 11.163086 54.029221
30.939608 7.0964231 51.31702
31.333851 7.1849542 54.388813
30.228603 9.7290859 51.408775
30.61227 9.8558321 54.480572
31.41997 9.1722736 58.809048
30.475718 11.308506 57.101013
31.728096 7.2734842 57.460606
32.122341 7.3620148 60.532402
30.995939 9.9825792 57.552364
31.379604 10.109326 60.624161
33.379303 3.1254621 64.819481
33.321117 1.4408081 63.509308
33.72506 1.450724 66.581093
33.048687 4.4973092 63.541397
33.449711 4.5467701 66.61319
34.185238 3.184912 70.963074
34.128998 1.46064 69.652901
34.532936 1.470556 72.724686
33.850735 4.596231 69.68499
34.251759 4.6456919 72.756783
32.198818 9.3878107 64.952629
32.516582 7.4505448 63.604195
32.910824 7.5390749 66.67598
31.763275 10.236071 63.69595
32.146942 10.362817 66.767738
32.977665 9.6033478 71.096222
33.305069 7.6276059 69.747787
33.699314 7.7161369 72.819572
32.530609 10.489564 69.839539
32.914276 10.61631 72.911331
26.336262 17.908911 52.089024
26.184517 17.840807 50.847729
26.996971 18.374237 58.232613
23.214214 21.881878 52.522671
21.130463 23.628391 50.942944
21.394384 23.934349 54.014736
24.793365 19.768547 51.053375
25.111906 20.017138 54.125168
23.304611 21.549639 51.278786
23.597252 21.828255 54.350578
23.7995 22.439106 58.66626
25.430447 20.265728 57.19696
25.748987 20.51432 60.268757
23.889893 22.106873 57.422371
24.182533 22.38549 60.494167
28.683548 14.084084 52.917519
28.633326 13.649435 51.090816
28.994242 13.831105 54.162609
27.480158 15.873625 51.252632
27.831726 16.072786 54.324425
29.371035 12.135009 51.526974
29.748022 12.28043 54.598766
28.372856 14.337062 51.672428
28.733772 14.518732 54.744225
29.405384 14.447426 59.061108
29.35516 14.012777 57.234402
29.716076 14.194448 60.306198
28.183296 16.271946 57.396217
28.534864 16.471107 60.468014
30.125008 12.425849 57.670559
30.501995 12.571269 60.742355
29.09469 14.700403 57.816017
29.455608 14.882074 60.887814
26.389992 18.101816 53.267414
26.211382 17.93726 51.436924
26.541737 18.169922 54.508717
24.953041 19.689854 51.642262
25.271582 19.938444 54.714054
27.295929 16.355101 51.838188
27.647497 16.554262 54.909981
30.255428 20.862932 51.379803
30.585785 21.095594 54.451595
27.050701 18.567141 59.411007
26.872091 18.402584 57.580509
27.202444 18.635246 60.652306
25.590122 20.187037 57.785847
25.908665 20.435627 60.857643
27.999067 16.753422 57.981773
28.350636 16.952583 61.05357
30.916138 21.328257 57.523388
27.229311 18.731699 61.241501
27.657681 18.839561 64.376198
28.31839 19.304886 70.519791
24.384781 22.996342 64.809837
24.47517 22.664106 63.565956
24.767811 22.942724 66.637749
24.970062 23.553576 70.95343
25.060452 23.221342 69.709549
25.353092 23.49996 72.781342
30.127487 14.810227 65.204674
30.076996 14.376119 63.377987
28.886433 16.670269 63.539803
29.238001 16.869429 66.611595
30.878981 12.716689 63.814144
31.255968 12.862109 66.885933
29.816526 15.063745 63.959602
30.177443 15.245417 67.031387
30.849054 15.17411 71.348282
29.589571 17.06859 69.683395
29.941139 17.267752 72.755188
31.632956 13.00753 69.957741
32.009941 13.152949 73.029526
30.538361 15.427088 70.103195
30.899277 15.608759 73.17498
27.711409 19.032465 65.554588
27.532801 18.867908 63.724094
27.863153 19.100571 66.795883
26.227201 20.684217 63.929432
26.545744 20.93281 67.001221
28.702206 17.151745 64.125359
29.053774 17.350904 67.197144
27.559664 18.964359 64.313293
27.890018 19.197021 67.385078
28.37212 19.497789 71.698181
28.193508 19.333233 69.867691
28.523867 19.565891 72.939476
26.864285 21.181402 70.073029
27.182825 21.429993 73.144814
29.405342 17.550066 70.268951
29.75691 17.749228 73.340744
28.220373 19.429686 70.456886
28.550728 19.66235 73.528671
36.841694 2.838403 52.831577
31.770287 1.31218 51.69899
32.174225 1.322096 54.770782
31.561676 3.8589101 51.727638
31.962698 3.908371 54.799431
36.754848 1.348568 51.528519
37.499157 1.946674 53.750622
36.557465 4.0201349 51.554398
37.006847 4.127296 54.573868
32.738102 2.533927 59.627312
32.578167 1.332011 57.842575
32.982105 1.3419271 60.914371
32.36372 3.9578331 57.871223
32.764744 4.0072942 60.94302
38.002827 3.698818 55.696411
33.047035 1.2529629 61.391224
37.616692 5.0665412 57.045307
38.039707 6.2904859 59.838314
36.004921 8.3290997 52.942612
31.17643 6.321208 51.782429
31.570675 6.4097381 54.854221
30.589422 8.748909 51.86528
30.978846 8.8566771 54.937073
36.177773 6.632534 51.60508
36.578289 6.7016578 54.676136
35.645611 9.1272583 51.678684
36.034199 9.2410498 54.750546
36.793232 8.5078402 59.085709
31.96492 6.4982691 57.926014
32.359165 6.5867991 60.99781
31.368271 8.9644461 58.008865
31.757698 9.0722151 61.080662
36.981743 6.7775168 57.747166
37.430267 7.3084388 60.652897
36.425938 9.3442392 57.82206
36.817677 9.4474287 60.893578
40.811085 2.823123 52.893661
40.893829 1.290001 51.693161
39.773109 1.681635 53.930157
41.185818 3.824501 51.748077
40.480793 3.8407381 54.848778
41.035301 1.531945 51.027321
46.669765 1.482738 55.210323
41.458992 4.5483751 51.105732
46.24324 4.5348349 55.130188
45.564941 3.2832201 60.036709
39.458374 3.7779751 55.927349
39.366863 5.5216708 58.686836
39.771465 4.8771958 57.269897
39.526848 6.160253 59.952595
46.104153 1.453338 58.229
45.538536 1.423938 61.247681
45.701649 4.4152598 58.153378
45.160057 4.2956872 61.176571
42.40258 7.7391548 53.192722
41.786156 6.106833 51.860733
41.268433 6.2374992 54.88887
42.564392 7.660018 52.007042
42.091724 7.7853842 55.04422
42.575768 7.4812551 51.314865
45.146313 7.4202542 54.924099
43.972431 8.6018572 51.578815
43.789803 8.5919447 54.669243
41.83009 8.3181629 59.335018
40.783249 6.4417439 57.922562
40.109806 6.8051119 60.892689
41.687218 7.983305 58.092224
41.284027 8.1503181 61.142017
44.71764 7.172401 57.968506
44.288967 6.9245491 61.012913
43.560764 8.4802389 57.751152
43.237209 8.3270416 60.815311
33.544037 2.5933759 65.770897
33.386047 1.351843 63.98616
33.789986 1.3617589 67.057953
33.165768 4.0567551 64.014809
33.566788 4.106216 67.086601
33.450974 1.262879 64.463013
33.854912 1.272795 67.534805
33.282848 3.6162 64.48822
33.683872 3.6656611 67.560005
34.349972 2.6528261 71.91449
34.193928 1.371675 70.129753
34.597866 1.381591 73.201546
33.967812 4.1556768 70.158401
34.368835 4.2051382 73.230194
34.258854 1.282711 70.606606
34.662792 1.292627 73.678398
34.084896 3.7151229 70.631813
34.48592 3.7645841 73.703598
32.787807 7.6066728 65.876099
32.753407 6.6753278 64.069603
33.147652 6.7638588 67.141388
32.147118 9.1799831 64.152451
32.536545 9.2877522 67.224243
37.815998 7.9873791 63.616341
38.155651 8.6092577 66.729141
37.209412 9.5506182 63.965088
37.602932 9.6466837 67.036865
33.576298 7.7837329 72.019691
33.541897 6.8523889 70.213196
33.936138 6.9409189 73.284981
32.925972 9.3955212 70.296043
33.315395 9.5032902 73.367836
33.725311 6.2069921 70.682159
34.123421 6.2760711 73.753952
37.964569 9.8976612 70.099411
38.354031 10.00842 73.187431
44.471977 2.9890571 66.081245
44.822845 1.749714 64.931244
44.260586 1.6937931 67.950378
39.612617 7.2917299 63.159363
43.736755 4.992383 67.852127
44.972923 1.394537 64.26635
44.40731 1.365137 67.285027
44.618469 4.1761131 64.19976
44.076874 4.0565381 67.222946
43.355667 2.845356 72.121414
43.697266 1.64956 70.969666
43.276508 1.4430389 73.572433
43.208588 4.8464918 70.877853
42.841251 4.5237331 73.553207
43.841694 1.335737 70.303711
43.30677 1.318002 73.347557
43.531563 3.9531441 70.245445
43.003189 3.842417 73.296646
42.25219 8.3730202 65.6642
39.853737 7.5405998 63.8339
39.857841 8.162219 66.989799
40.930004 8.3279486 64.199837
40.629715 8.4895096 67.268333
43.857162 6.6787772 64.056725
43.372555 6.475347 67.090614
42.830902 8.1955061 63.863914
42.458698 8.0141706 66.918922
41.736088 7.7764878 71.817131
39.993511 8.5260296 70.175171
41.50808 7.7639909 73.494293
40.276203 8.5801411 70.336441
40.045689 8.6344872 73.425545
42.887951 6.2719169 70.124527
42.419083 6.0948 73.232033
42.038212 7.8316579 69.964874
41.63311 7.6564312 73.122337
34.500847 13.317097 53.146362
34.487709 12.685718 51.325695
34.864697 12.831138 54.397488
33.54287 15.038776 51.456795
33.912266 15.202518 54.528587
34.949814 11.527025 51.776829
35.333481 11.653771 54.848621
34.137001 13.803057 51.895241
34.513988 13.948477 54.967033
35.254822 13.607936 59.289951
30.657442 11.20822 58.115597
31.034428 11.35364 61.187393
34.281662 15.366261 57.60038
34.651058 15.530004 60.672176
35.717152 11.780519 57.920414
36.100819 11.907266 60.992214
34.890972 14.093896 58.038826
35.26796 14.239316 61.110622
32.598495 17.562077 53.435574
32.501221 17.233847 51.607731
32.862137 17.415516 54.679523
31.414322 19.180494 51.779598
31.755695 19.396666 54.851391
33.297016 15.777524 52.033794
33.657932 15.959193 55.105591
32.330601 17.70323 52.192455
32.682171 17.902391 55.264248
33.301636 17.9604 59.579163
33.223053 17.597189 57.751316
33.583973 17.77886 60.823112
32.097069 19.612839 57.923183
32.438438 19.82901 60.99498
34.018848 16.140863 58.177383
34.379768 16.322535 61.24918
33.033737 18.101551 58.33604
33.385307 18.300713 61.407837
43.48764 8.5795689 53.396736
43.137177 8.2831631 52.114815
42.632545 8.3291941 55.14576
44.110386 8.6185474 51.604851
43.567268 8.6193485 54.627434
42.565746 8.6128883 59.474243
42.257427 8.452054 58.199944
41.765503 8.4906998 61.23204
35.423409 12.876266 58.483864
35.800396 13.021687 61.55566
43.283291 8.5844841 57.699024
42.716198 8.5844841 60.717426
33.911602 15.12761 54.293179
34.650394 15.455094 60.436768
36.008793 13.898776 65.433533
31.411415 11.49906 64.259178
31.788401 11.644479 67.330971
35.020454 15.693746 63.743965
30.897907 13.866347 67.462067
36.484486 12.034011 64.064003
36.868153 12.160758 67.135788
35.644947 14.384735 64.182411
36.021931 14.530155 67.254204
36.762768 14.189616 71.577126
32.16539 11.789899 70.402771
32.542374 11.935319 73.474564
31.267305 14.03009 70.533875
31.636703 14.193832 73.605659
37.251823 12.287505 70.207596
37.63549 12.414252 73.279381
36.398918 14.675575 70.326004
36.775906 14.820995 73.397797
34.004772 18.358723 65.722748
33.944889 17.960529 63.894901
34.305805 18.1422 66.96669
32.779816 20.045183 64.066765
33.121185 20.261354 67.138557
34.740685 16.504204 64.320969
35.101601 16.685875 67.392754
33.736877 18.499874 64.47963
34.088444 18.699036 67.551414
34.707909 18.757046 71.866341
34.666725 18.323872 70.038498
30.638802 16.296381 73.756599
33.462559 20.477528 70.210365
33.803932 20.693699 73.28215
35.462521 16.867546 70.464561
35.823441 17.049215 73.536346
34.44001 18.898197 70.623222
34.79158 19.097359 73.695007
41.519562 8.6193485 65.52655
36.854221 11.093937 64.517853
37.243015 11.204155 67.589622
36.17738 13.167106 64.627449
36.554367 13.312526 67.699234
42.439323 8.4754524 63.790344
41.872234 8.4754524 66.808739
37.681297 11.939174 72.477135
37.631809 11.314373 70.661415
38.020603 11.424591 73.733192
36.931355 13.457946 70.771042
37.308342 13.603367 73.842827
41.564117 8.3089266 69.875809
41.049095 8.2866325 73.040825
35.389191 15.782579 66.580345
35.362564 15.250574 64.756317
35.73196 15.414315 67.828102
36.127987 16.110065 72.723938
36.101357 15.578057 70.89991
36.470757 15.7418 73.971695
35.562965 17.736847 74.117966
34.991169 3.2443609 77.106659
35.797104 3.3038099 83.250252
33.756516 9.8188848 77.239799
34.093559 7.804667 75.891365
33.297947 10.743057 75.983116
33.681614 10.869803 79.054909
34.535366 10.034422 83.383392
34.065281 10.99655 82.126709
36.603035 3.36326 89.393829
37.40897 3.422709 95.537422
35.314217 10.24996 89.52697
36.093063 10.465497 95.670563
25.555344 24.110809 77.097015
25.645739 23.778572 75.853127
26.140623 24.668043 83.240608
31.570889 15.537452 77.491859
32.386925 13.298369 76.101318
32.763912 13.443789 79.173103
31.260197 15.79043 76.246773
31.621113 15.9721 79.318558
32.292725 15.900795 83.635452
33.1409 13.58921 82.244911
33.517887 13.73463 85.316696
31.982031 16.153772 82.390366
32.342949 16.335443 85.462158
29.032829 19.963112 77.841759
28.854219 19.798552 76.011269
29.184574 20.031212 79.083054
27.501364 21.678583 76.216606
27.819904 21.927176 79.288391
30.10848 17.948387 76.412529
30.460049 18.147549 79.484322
28.881083 19.89501 76.600464
29.211435 20.12767 79.672249
29.693539 20.428434 83.985352
29.514931 20.263874 82.154861
29.845285 20.496536 85.226646
28.138447 22.175768 82.360199
28.456985 22.424358 85.431984
30.811619 18.34671 82.556122
31.163187 18.54587 85.627914
29.541792 20.360332 82.744057
29.872147 20.592995 85.815842
26.725903 25.225277 89.384186
27.311186 25.782511 95.527779
33.014557 16.264135 89.77903
33.894871 13.880049 88.388489
32.703865 16.517115 88.533943
33.064781 16.698784 91.605736
33.736393 16.62748 95.922623
33.425701 16.880457 94.677536
33.786617 17.062126 97.749329
30.354248 20.893759 90.128929
28.775526 22.672949 88.503777
29.094067 22.921541 91.575562
31.514755 18.745031 88.699699
31.866323 18.944193 91.771492
30.202501 20.825657 88.887634
30.532856 21.058317 91.959419
31.014959 21.359083 96.272522
29.412609 23.170134 94.647369
29.731148 23.418724 97.719154
32.217896 19.143354 94.843292
32.561199 19.337833 97.842903
30.863211 21.290979 95.031227
31.172718 21.508959 97.882339
35.155903 2.712275 78.058067
35.001804 1.391507 76.273331
35.405746 1.401423 79.345123
34.769859 4.2546 76.301979
35.170879 4.30406 79.373772
35.066734 1.302543 76.750183
35.470673 1.312459 79.821976
34.88694 3.8140459 76.775391
35.287964 3.863507 79.847176
35.961838 2.771724 84.20166
35.809685 1.411339 82.416924
36.213623 1.421255 85.488716
35.571903 4.3535218 82.445572
35.972927 4.4029832 85.517365
35.874615 1.3223751 82.893776
36.278553 1.332291 85.965569
35.688984 3.9129679 82.918983
36.090008 3.962429 85.990776
34.364784 7.960794 78.163269
34.330383 7.029449 76.356773
34.724625 7.117979 79.428558
33.704819 9.6110582 76.439621
34.094246 9.7188272 79.511414
34.521534 6.34515 76.825737
34.919647 6.4142289 79.89753
38.743019 10.083922 76.25705
34.41494 8.7866869 79.97113
35.153271 8.1378555 84.306862
35.11887 7.2065101 82.500366
35.513115 7.295043 85.572151
34.483669 9.8265963 82.583214
34.873093 9.9343643 85.655006
35.31776 6.4833078 82.96933
35.715874 6.5523872 86.041122
34.804367 8.894455 83.042938
35.193481 9.0033665 86.114746
43.605064 2.853544 77.560593
43.388615 1.447893 76.097473
43.990726 1.770023 78.292221
42.952553 4.5502238 76.160721
43.480019 5.0673528 78.505424
43.507774 1.324687 76.653763
44.516022 1.363145 79.298759
43.20155 3.8786061 76.729637
44.213448 4.0882459 79.483505
43.064526 4.0178251 87.64579
35.939541 1.23341 83.370636
42.570847 1.877476 88.559944
41.448387 8.1729832 83.715485
41.857903 5.3759851 87.658493
45.757858 1.42546 81.051979
43.886681 1.655391 88.129211
45.453106 4.4279528 81.337708
43.561916 4.6121259 87.363998
41.937294 7.9402552 78.159462
41.580475 7.833899 76.359779
40.538345 8.7085447 79.692444
39.963737 8.7454748 76.592178
39.985886 8.9939442 79.706383
42.637718 6.1030412 76.869339
43.585354 6.5303001 79.867012
41.862831 7.6670542 77.061333
42.82748 8.0157375 80.329758
42.024372 7.9070802 84.327415
40.931763 8.5093126 83.00222
41.11467 7.4449 86.260483
39.994164 9.2502232 82.828865
40.228065 9.3729467 85.931244
44.663025 7.3709831 82.078476
43.72538 6.8636541 86.196007
43.670834 8.5828409 83.008736
44.406517 8.2866325 85.332932
36.767769 2.8311739 90.345238
36.617565 1.4311709 88.560501
37.021503 1.441087 91.632294
36.373951 4.4524441 88.589149
36.774971 4.501905 91.660942
36.682495 1.342207 89.037354
37.086433 1.352123 92.109146
36.491032 4.0118899 89.062561
36.892052 4.0613508 92.134354
37.573704 2.8906231 96.488831
37.425446 1.451003 94.704094
37.829384 1.460919 97.775887
37.175995 4.5513668 94.732742
37.577019 4.6008282 97.804535
37.490372 1.362038 95.180946
37.903046 1.3721679 98.126343
37.293076 4.1108131 95.206154
37.708492 4.1620522 98.167427
35.941757 8.3149166 90.450439
35.90736 7.3835731 88.643944
36.301605 7.4721041 91.715729
35.262516 10.042132 88.726791
35.651943 10.149901 91.798584
36.113987 6.6214662 89.112907
36.5121 6.690546 92.1847
35.583218 9.1099911 89.186516
35.972645 9.2177601 92.258301
36.730247 8.4919767 96.594032
36.695847 7.5606341 94.787537
37.087982 7.6486912 97.842903
36.04137 10.25767 94.870384
36.418205 10.361955 97.842903
36.910213 6.759624 95.2565
37.333958 6.833149 98.249474
36.362068 9.3255281 95.330109
36.789906 9.4439268 98.311966
41.840141 2.6640999 90.648407
41.96759 1.524384 89.497902
42.06646 1.416311 91.949005
41.580444 4.3126912 89.281052
41.890831 4.1904659 91.961197
43.776646 1.254385 88.203606
42.130722 1.264466 92.407127
44.439018 3.752248 87.889389
41.985954 3.8416381 92.43631
42.607254 2.703639 96.802444
42.448837 1.448653 95.030563
40.064369 1.334667 99.978691
42.292789 4.2323661 95.032982
40.333328 4.0307961 99.979469
42.513493 1.270601 95.480713
42.70055 1.308821 98.096107
42.384285 3.9018381 95.506081
42.559013 3.9158831 98.054497
41.194252 7.8643532 90.736328
41.134571 6.8450861 88.937584
41.526146 6.9204602 92.008888
40.612972 9.4592466 89.004257
41.007076 9.547595 92.076035
44.951221 6.021606 87.474083
41.685047 6.3627648 92.478355
40.850258 8.6828938 89.469353
41.244244 8.7715082 92.541206
41.982235 8.0173655 96.880539
41.921909 6.989131 95.081329
40.853127 6.803679 99.729134
41.401321 9.6361256 95.147835
41.064583 9.5605059 99.161385
42.089912 6.37818 95.548531
42.282261 6.4115539 97.970573
41.638145 8.8609076 95.613243
41.821609 8.9021063 97.970573
32.932503 12.712118 78.36702
32.919361 12.080739 76.546356
33.296349 12.226158 79.618141
32.0061 14.357574 76.677452
32.375496 14.521317 79.749245
38.019157 12.540998 76.351173
38.402824 12.667745 79.422958
37.152893 14.966414 76.469582
37.529877 15.111835 79.541374
33.686478 13.002958 84.510612
33.673336 12.371578 82.689949
34.05032 12.516998 85.761734
32.744896 14.685059 82.821045
33.114292 14.848801 85.892838
38.786495 12.794492 82.494766
34.504677 11.379972 86.212868
37.906864 15.257255 82.613174
38.283852 15.402675 85.684967
35.411045 19.155367 78.009918
30.999722 16.478052 76.828392
31.360638 16.659723 79.900177
34.145306 20.909872 76.353943
34.486675 21.126043 79.425728
36.184357 17.230886 76.608139
36.545273 17.412556 79.679924
35.14315 19.29652 76.7668
35.494717 19.495682 79.838585
36.114185 19.553692 84.153511
31.721556 16.841394 82.971985
32.082474 17.023066 86.04377
34.828049 21.342216 82.497536
31.018253 18.929686 86.215637
36.906193 17.594227 82.751732
37.267109 17.775898 85.823524
35.846287 19.694843 82.910393
36.197857 19.894003 85.982178
38.448631 12.192667 78.620712
38.409393 11.534809 76.804962
38.798187 11.645027 79.87674
37.685329 13.748787 76.914619
38.062313 13.894205 79.986404
41.299007 8.2866325 77.201035
42.32032 8.4754524 80.639412
39.215969 12.44616 84.764305
39.186981 11.755245 82.948532
39.575771 11.865463 86.020302
38.439301 14.039626 83.058212
38.816288 14.185046 86.129997
43.577496 8.5994511 83.096245
44.72963 8.5471134 84.961655
38.842224 13.051166 83.509132
39.225891 13.177913 86.580925
36.866779 16.43755 78.867516
36.840149 15.905541 77.043488
37.209549 16.069284 80.11528
35.923882 17.918516 77.189751
36.284801 18.100187 80.261543
37.605572 16.765034 85.011116
37.578945 16.233027 83.18708
37.948345 16.39677 86.258873
36.645718 18.281858 83.333344
37.006638 18.46353 86.405136
34.440449 13.293798 90.65419
34.427307 12.662418 88.833527
34.804295 12.807838 91.905312
33.483688 15.012543 88.964622
33.853085 15.176285 92.036415
34.888348 11.506719 89.28466
35.272015 11.633465 92.356445
38.660839 15.548094 88.756752
34.45359 13.925177 92.474861
35.194424 13.584638 96.797783
35.181282 12.953259 94.977119
35.532986 13.088927 97.842903
34.222481 15.340028 95.108215
34.584663 15.50057 98.007812
35.655682 11.760212 95.428253
36.171574 11.930639 98.581474
34.830578 14.070597 95.546661
35.739475 14.4212 99.223312
32.542168 17.530169 90.943405
32.44339 17.204737 89.115562
32.804306 17.386408 92.187347
31.359625 19.145857 89.28743
31.700998 19.362028 92.359215
37.628029 17.957567 88.895309
37.988945 18.139238 91.967102
36.549423 20.093166 89.05397
36.900993 20.292326 92.125755
33.245304 17.928492 97.086998
33.165226 17.568079 95.259155
33.549915 17.761717 98.253792
32.04237 19.578201 95.431023
32.503761 19.870375 98.589073
38.349861 18.320908 95.038902
36.629925 17.455168 99.975487
37.252563 20.491488 95.197563
37.079552 20.393478 98.973183
39.983303 12.699654 90.907883
39.964565 11.975681 89.092079
40.353355 12.085898 92.163857
39.193272 14.330465 89.20179
39.570259 14.475885 92.273582
40.282867 11.053331 89.549767
40.673458 11.152512 92.623695
39.609558 13.304659 89.65271
39.993225 13.431406 92.724503
40.750641 12.953147 97.051476
40.743008 12.192112 95.235931
40.70433 12.181942 98.71064
39.947247 14.621305 95.345383
40.043163 14.658305 98.389641
41.062885 11.26028 95.695503
41.233673 11.307543 97.970573
40.376896 13.558153 95.796303
40.53257 13.609584 97.970573
38.344368 17.092518 91.154694
38.317741 16.560513 89.330658
38.687138 16.724253 92.402451
37.367558 18.645201 89.476921
37.72847 18.82687 92.548714
38.842564 15.447807 89.771339
39.219551 15.593228 92.843124
39.070889 17.414562 97.196205
39.056534 16.887997 95.474251
39.204571 16.953617 98.125031
38.08939 19.008539 95.620522
38.256489 19.092646 97.970573
39.596539 15.738648 95.914932
39.734947 15.792041 97.970573
38.862923 17.842581 97.93222
20.382141 24.636034 53.027573
19.712852 24.862614 51.207886
19.961445 25.181152 54.279678
18.395245 25.896513 51.484669
18.627907 26.226868 54.556461
21.956053 22.961813 51.521809
22.234671 23.254454 54.593601
20.670723 24.170103 51.778442
20.934647 24.476063 54.850235
20.909985 25.247952 59.171162
20.210035 25.499695 57.351471
20.458626 25.818233 60.423267
18.860569 26.557224 57.628254
19.093229 26.887579 60.70005
22.513287 23.547094 57.665394
22.791904 23.839735 60.73719
21.198566 24.782021 57.922028
21.46249 25.08798 60.993824
20.726866 30.601612 52.93586
17.205643 26.747179 51.77129
17.421816 27.088552 54.843082
18.591518 31.710512 51.419353
18.79068 32.06208 54.491146
22.500912 29.05941 51.400513
22.749504 29.377951 54.472305
21.234791 30.04163 51.678722
21.467453 30.371986 54.750515
21.192188 31.262321 59.079449
17.637987 27.429924 57.914875
17.85416 27.771301 60.986671
18.989841 32.413651 57.562939
19.189003 32.765217 60.634735
22.998096 29.696491 57.544098
23.246687 30.015032 60.615894
21.700115 30.702339 57.822308
21.932777 31.032696 60.894104
27.722143 24.461117 53.047432
23.694132 21.239794 51.864273
24.000092 21.503716 54.936066
26.023142 25.976925 51.455048
26.315784 26.255543 54.52684
28.986233 22.634087 51.584835
29.304773 22.882679 54.656628
27.723665 24.209164 51.805119
28.029625 24.473087 54.876911
28.334061 24.98896 59.191021
24.306049 21.767637 58.007858
24.612009 22.031561 61.079655
26.608423 26.534159 57.598633
26.901064 26.812777 60.670429
29.623312 23.131269 57.72842
29.941854 23.379862 60.800217
28.335585 24.737009 57.948704
28.641542 25.000931 61.0205
25.146976 27.190388 53.531162
24.715639 27.269505 51.705677
24.985092 27.57069 54.777447
23.420338 28.432343 51.967625
23.684259 28.7383 55.039417
26.496574 25.591068 52.03907
26.789217 25.869686 55.110863
25.611965 27.07925 55.356796
25.70421 27.775669 59.674751
25.249012 27.876648 57.849239
25.512936 28.182608 60.921036
23.948183 29.04426 58.11121
24.212105 29.35022 61.183006
27.081852 26.1483 58.182655
27.374495 26.426918 61.254452
25.890581 27.371891 58.428589
26.169199 27.664532 61.500385
21.43783 25.859869 65.314743
20.707222 26.136774 63.495056
20.955812 26.455313 66.566849
19.325891 27.217936 63.771839
19.558552 27.548288 66.843628
23.07052 24.132374 63.808979
23.349136 24.425014 66.880768
21.726412 25.393938 64.065613
21.990334 25.699898 67.137405
21.965675 26.471788 71.458336
21.204403 26.773853 69.638649
19.791214 27.878645 69.915436
20.023876 28.209 72.987221
23.627752 24.717655 69.952576
23.90637 25.010296 73.024361
22.254257 26.005857 70.209206
22.518179 26.311815 73.280998
18.828293 27.905844 65.869347
18.070333 28.112675 64.058456
18.286505 28.454046 67.130249
16.966322 28.841637 64.352837
17.165482 29.193205 67.424629
20.472349 26.460049 64.334
20.720942 26.778589 67.405792
22.165438 31.363049 63.965893
22.3981 31.693405 67.037682
19.293617 28.566555 72.012939
18.502678 28.79542 70.202049
18.718849 29.136791 73.273842
17.364643 29.544775 70.496429
17.563805 29.896343 73.568222
20.969532 27.09713 70.477592
21.218124 27.41567 73.549385
22.630764 32.023762 70.109489
22.863424 32.354115 73.181274
28.945978 25.516806 65.334602
24.917967 22.295483 64.151443
25.223927 22.559404 67.223228
27.193705 27.091393 63.742218
23.954214 23.954214 67.460442
30.260393 23.628452 63.872005
30.578936 23.877045 66.943794
28.947502 25.264854 64.092293
29.25346 25.528774 67.164078
25.837368 22.835297 72.124512
25.529886 22.823328 70.295036
25.835846 23.08725 73.366821
24.240013 24.240013 70.532219
24.52581 24.52581 73.603973
30.897476 24.125637 70.015594
27.342493 21.351299 73.733704
29.55942 25.792698 70.235886
29.865379 26.05662 73.307671
26.261444 28.36095 65.818336
25.776857 28.488565 63.992828
26.040779 28.794523 67.064613
24.476027 29.656178 64.254791
24.739948 29.962137 67.326584
27.667133 26.705534 64.326241
27.959774 26.98415 67.398033
26.447817 27.957172 64.572174
26.726431 28.249811 67.643967
26.818676 28.94623 71.961929
26.304701 29.100483 70.136421
26.568624 29.406443 73.208206
25.003872 30.268097 70.398384
25.267794 30.574055 73.470177
28.252415 27.262768 70.469833
28.545055 27.541386 73.541626
27.005049 28.542454 70.715767
27.283667 28.835094 73.78756
18.403154 32.135448 53.524334
17.463552 32.395008 51.720371
17.662714 32.746578 54.792164
16.463017 32.951164 52.028381
16.644688 33.312084 55.100174
20.10783 30.855917 51.964745
20.324001 31.19729 55.036537
18.958025 31.629553 52.257183
19.165813 31.976229 55.328945
18.801479 32.838589 59.667923
17.861874 33.098148 57.863956
18.061037 33.449715 60.935753
16.826359 33.673 58.171967
17.008028 34.033916 61.243763
20.540173 31.53866 58.10833
20.756346 31.880033 61.180126
19.373604 32.322906 58.400703
19.581394 32.669582 61.472469
16.447428 33.269249 54.135044
16.810778 33.991081 60.278633
15.990792 34.131775 58.482658
16.154535 34.501171 61.554455
22.910727 29.183077 54.058456
22.266041 29.382683 52.23946
22.514633 29.701223 55.311253
23.407911 29.82016 60.202045
22.763226 30.019764 58.383045
23.011814 30.338303 61.454842
21.212845 31.518185 60.760193
19.1998 33.541725 65.811501
18.260197 33.801285 64.007545
18.459358 34.152851 67.07933
17.189699 34.394836 64.315552
17.37137 34.755753 67.387344
20.972517 32.221409 64.251915
21.18869 32.562778 67.323708
19.789183 33.016258 64.544228
19.996971 33.362934 67.61599
19.598124 34.244862 71.955093
18.65852 34.504421 70.151138
18.857681 34.855991 73.222923
17.55304 35.116673 70.459145
17.734711 35.477589 73.530937
21.404861 32.904152 70.395508
21.621035 33.245525 73.4673
20.216055 33.702457 70.687798
20.432228 34.043831 73.75959
17.174116 34.712914 66.422211
16.318277 34.870571 64.626244
16.482019 35.239964 67.698036
17.537458 35.43475 72.565811
16.645761 35.609364 70.769836
16.809504 35.97876 73.841629
19.210598 34.31823 70.988289
19.40976 34.6698 74.060074
23.905094 30.457239 66.345627
23.260406 30.656845 64.526627
23.508999 30.975386 67.598419
22.40843 31.821335 67.878052
25.581038 29.336237 67.900116
24.402277 31.09432 72.48922
23.757593 31.293932 70.670219
24.006184 31.612471 73.742012
22.641092 32.151688 70.94986
22.873755 32.482044 74.021645
25.844959 29.642197 70.971916
26.108883 29.948156 74.043709
21.678167 32.17889 66.90377
22.143494 32.839603 73.047363
30.460899 21.123951 53.799492
30.282291 20.959393 51.968998
30.612648 21.192055 55.040791
29.145906 22.555393 52.173721
29.464447 22.803986 55.245514
31.121609 21.589275 59.943081
30.943003 21.424717 58.112583
31.273357 21.657377 61.18438
29.782988 23.052578 58.317307
30.10153 23.30117 61.389103
32.008926 19.896614 58.511269
32.3503 20.112787 61.583065
28.34016 23.981152 54.221756
28.95208 24.508997 60.365345
28.950558 24.76095 61.607662
32.933182 18.923338 60.750271
31.782318 22.054598 66.086662
31.60371 21.890039 64.256172
31.934067 22.122702 67.327957
30.420067 23.549759 64.460892
30.738609 23.798351 67.532684
32.691673 20.328959 64.654854
33.033047 20.54513 67.726639
32.443027 22.519922 72.230255
32.264423 22.355364 70.399765
32.594776 22.588024 73.47155
31.05715 24.046944 70.604485
31.37569 24.295534 73.676277
33.37442 20.761305 70.798447
33.715794 20.977474 73.870232
32.291283 22.45182 70.98896
32.621639 22.684483 74.060745
29.563995 25.036839 66.508926
29.256517 25.024872 64.679451
29.562477 25.288795 67.751236
30.175915 25.564686 72.652519
29.868433 25.552715 70.823044
30.174393 25.816639 73.894829
29.018492 27.155535 74.125641
33.636318 19.321659 66.893852
34.339455 19.719984 73.037445
27.444843 27.444843 66.977798
28.016439 28.016439 73.12133
22.493519 27.083704 77.601913
20.256538 28.539354 76.059013
20.489199 28.869707 79.130798
24.184986 25.302937 76.096153
24.463602 25.595577 79.167938
22.782101 26.617775 76.352783
23.046022 26.923735 79.424576
23.021364 27.695623 83.745506
20.721861 29.200062 82.202606
20.954523 29.530418 85.274391
24.74222 25.888218 82.239746
25.020838 26.180859 85.311531
23.309946 27.229694 82.496376
23.573868 27.535652 85.568169
19.75894 29.227262 78.156517
18.935022 29.478165 76.345627
19.151194 29.819538 79.417419
17.762966 30.247911 76.640007
17.962126 30.599476 79.7118
21.466717 27.734211 76.62117
21.715307 28.052752 79.692963
23.096085 32.684467 76.253067
20.499529 28.997633 79.971169
20.224262 29.887972 84.30011
19.367367 30.160912 82.48922
19.583538 30.502283 85.561012
18.161285 30.951046 82.783607
18.360447 31.302614 85.855392
21.9639 28.371292 82.764763
22.21249 28.689833 85.836555
20.732191 29.32799 83.042976
20.964853 29.658344 86.114761
26.449286 23.36314 78.268089
26.141804 23.351171 76.438614
26.447763 23.615093 79.510406
24.811607 24.811607 76.675735
25.098333 25.096434 79.747498
27.66103 21.59989 76.805489
27.979572 21.84848 79.877281
30.171339 26.320541 76.379463
30.477297 26.584463 79.451248
27.061203 23.890985 84.411682
26.753723 23.879017 82.582207
27.059681 24.142937 85.653999
25.390976 25.375051 82.819298
25.683617 25.653669 85.89109
28.298113 22.097073 82.949081
28.616653 22.345663 86.020874
30.783257 26.848387 82.523056
27.368685 23.902956 86.241158
27.37591 29.531509 78.105507
26.832546 29.7124 76.279999
23.857861 26.323092 79.99823
25.531713 30.880013 76.541969
25.795637 31.185972 79.613754
28.837696 27.820002 76.613411
29.130335 28.098618 79.685204
27.562281 29.127733 76.859344
27.840899 29.420374 79.931137
27.933142 30.116791 84.2491
24.129292 26.622568 83.069992
24.400721 26.922047 86.141762
26.059559 31.491932 82.685562
26.323481 31.797892 85.757347
29.422977 28.377235 82.757004
29.715618 28.655853 85.828796
28.119516 29.713015 83.002937
28.398132 30.005655 86.07473
23.549206 28.307541 89.889084
21.187183 29.860771 88.346184
25.299454 26.473499 88.383324
23.83779 27.84161 88.639954
24.101711 28.14757 91.711746
24.077053 28.91946 96.032677
24.365635 28.453529 94.783546
24.628487 28.758249 97.842903
20.689587 30.548683 90.443687
19.799711 30.843657 88.632797
20.015882 31.185028 91.70459
18.559607 31.654182 88.927185
18.758768 32.005753 91.99897
22.461082 29.008373 88.90834
22.709673 29.326912 91.980133
21.197514 29.988699 89.186554
21.430174 30.319054 92.258339
21.154909 31.209393 96.58728
20.232056 31.526402 94.776398
20.447855 31.867186 97.842903
18.95793 32.357323 95.070778
19.148981 32.694576 97.946808
22.958265 29.645454 95.051933
23.194084 29.94763 97.9161
21.662836 30.649408 95.330147
21.918474 31.012386 98.312073
27.67312 24.418829 90.55526
27.365639 24.406858 88.725784
27.671598 24.670782 91.797577
25.976255 25.932285 88.962875
26.268896 26.210901 92.034668
28.935192 22.594255 89.092667
29.253735 22.842848 92.164452
27.674644 24.166878 89.31295
27.980602 24.430799 92.384735
28.285038 24.946674 96.698853
27.977558 24.934704 94.869377
28.273727 25.190182 97.842903
26.561537 26.489519 95.106468
26.848169 26.762417 98.004982
29.572275 23.091438 95.236259
29.907675 23.353188 98.216476
28.286562 24.694723 95.456543
28.761442 25.104357 98.74984
28.490376 30.702072 90.392677
24.67215 27.221523 89.213516
24.942804 27.521667 92.285271
26.587402 32.103848 88.82914
26.851324 32.409805 91.900925
30.008259 28.934469 88.900581
30.300898 29.213085 91.972374
28.676748 30.298296 89.146515
28.955366 30.590937 92.218307
25.659569 27.728781 97.182587
25.206728 27.827627 95.357079
25.514524 28.184448 98.386032
23.905899 28.995241 95.619049
25.035086 30.304283 99.766975
30.593538 29.491701 95.044174
29.227764 28.191376 99.971771
29.233982 30.883577 95.290115
29.263258 30.914326 98.539062
19.996445 34.947998 78.098679
19.056843 35.207558 76.294716
19.256002 35.559128 79.366501
17.91638 35.838509 76.602722
18.098051 36.199425 79.674515
21.837206 33.586899 76.539085
22.053377 33.928272 79.610878
20.648399 34.385204 76.831375
20.864571 34.726578 79.903168
20.39477 35.651138 84.242271
17.033319 31.635538 83.084625
17.232479 31.987106 86.15641
18.279722 36.560345 82.746315
18.461391 36.921261 85.818108
22.26955 34.269646 82.682678
22.485722 34.611015 85.754471
21.080744 35.067951 82.974968
21.296915 35.409325 86.046761
17.900801 36.156586 78.709389
16.973246 36.348156 76.913414
17.136988 36.717552 79.985207
15.998851 36.825588 77.229698
16.162592 37.194981 80.301491
