# .PCD v0.7 - Point Cloud Data file format
VERSION 0.7
FIELDS x y z
SIZE 4 4 4
TYPE F F F
COUNT 1 1 1
WIDTH 1581
HEIGHT 1
VIEWPOINT 0 0 0 1 0 0 0
POINTS 1581
DATA ascii
-34.263924 -18.922987 30.32214
-37.508026 -14.460257 27.238457
-38.552784 -12.973228 25.98859
-37.924984 -12.665892 27.923595
-36.997154 -16.24099 26.535166
-36.372368 -15.949648 28.478062
-37.939262 -13.654671 26.911659
-37.287857 -13.407626 28.848577
-36.205219 -13.966167 31.112293
-35.747585 -15.658306 30.420959
-35.122795 -15.366961 32.363853
-36.636452 -13.160581 30.785494
-35.98505 -12.913538 32.722412
-42.688423 -8.2737379 18.151012
-42.406872 -10.178677 17.527374
-41.741455 -10.000378 19.470663
-42.965588 -7.548861 17.745687
-42.275425 -7.4650621 19.683794
-41.35759 -7.917141 22.037594
-41.076035 -9.8220797 21.413954
-41.585262 -7.3812628 21.621902
-40.895096 -7.2974629 23.560011
-43.191326 -2.8264079 18.371899
-43.841885 -1.184912 16.952454
-43.228973 -4.5281138 17.849628
-42.540768 -4.4679031 19.791342
-43.469692 -1.425755 17.9356
-42.781487 -1.365544 19.877314
-41.814922 -2.705986 22.255325
-41.85257 -4.4076929 21.733055
-41.164364 -4.3474822 23.674768
-42.093288 -1.305334 21.819027
-41.405083 -1.245123 23.76074
-41.618752 -9.6618052 20.052206
-41.872036 -10.87271 18.47797
-41.206619 -10.694412 20.421261
-42.569088 -7.8801532 18.731636
-41.878925 -7.7963538 20.669744
-41.337196 -11.566744 19.428566
-40.67178 -11.388445 21.371857
-42.03088 -8.6291962 19.683151
-41.365463 -8.4508982 21.62644
-40.287914 -9.3052082 23.938787
-40.541199 -10.516113 22.364552
-39.875782 -10.337815 24.30784
-41.188763 -7.7125549 22.607851
-40.498596 -7.628756 24.545959
-40.006363 -11.210147 23.315147
-39.340946 -11.031848 25.258436
-40.700047 -8.2726002 23.569731
-40.03463 -8.0943012 25.513021
-42.446938 -3.3080921 20.33819
-42.856773 -4.7689562 18.832775
-42.168571 -4.708745 20.774487
-43.097496 -1.666597 18.918745
-42.40929 -1.6063859 20.860458
-42.484581 -5.009799 19.815922
-41.796379 -4.9495878 21.757633
-42.7253 -1.907439 19.901892
-42.037098 -1.8472281 21.843605
-41.070534 -3.1876709 24.221617
-41.48037 -4.6485348 22.716202
-40.792168 -4.5883241 24.657913
-41.721092 -1.546176 22.802172
-41.032887 -1.485965 24.743885
-41.108177 -4.8893771 23.699348
-40.419975 -4.8291659 25.64106
-41.348896 -1.7870179 23.785318
-40.660694 -1.726807 25.727032
-39.996235 -7.6828918 25.918007
-38.613735 -7.5334101 29.794146
-40.438519 -2.585566 26.138752
-40.716881 -1.184912 25.702452
-39.062115 -2.4651439 30.022177
-38.957081 -8.9486113 27.825367
-39.210365 -10.159516 26.251131
-38.544949 -9.9812183 28.194422
-39.808434 -7.5449572 26.484068
-39.118271 -7.4611578 28.422176
-38.675526 -10.85355 27.201727
-38.010109 -10.675251 29.145018
-39.369209 -7.9160032 27.45631
-38.703793 -7.7377038 29.399601
-37.626247 -8.5920143 31.711946
-37.879532 -9.8029194 30.137711
-38.428108 -7.3773589 30.360283
-37.737946 -7.29356 32.298393
-37.344692 -10.496953 31.088306
-36.679276 -10.318654 33.031597
-38.038376 -7.5594058 31.342892
-37.368549 -7.3987761 33.28529
-39.694126 -3.06725 28.105042
-40.103966 -4.5281129 26.599627
-39.415764 -4.4679031 28.54134
-40.344685 -1.425754 26.685598
-39.656483 -1.365544 28.627312
-39.73177 -4.7689562 27.582773
-39.043571 -4.708745 29.524487
-39.972492 -1.6665961 27.668745
-39.28429 -1.6063859 29.610458
-38.317722 -2.9468279 31.988468
-38.727562 -4.407692 30.483053
-38.039356 -4.3474808 32.424767
-38.968281 -1.305333 30.569025
-38.280079 -1.245122 32.510738
-38.35537 -4.6485338 31.4662
-37.672928 -4.539185 33.403816
-38.596088 -1.546175 31.552172
-37.907883 -1.485965 33.493885
-35.872406 -22.9377 20.340687
-36.138374 -23.59157 18.681372
-35.570583 -23.193996 20.621193
-37.588573 -21.097404 19.240141
-36.963783 -20.806059 21.183037
-34.87286 -24.893595 19.492506
-34.305069 -24.496023 21.432325
-36.174229 -22.681402 20.060181
-35.606438 -22.283831 22.000002
-34.736816 -22.142551 24.220327
-35.002789 -22.796421 22.561012
-34.434994 -22.398849 24.500834
-36.338993 -20.514715 23.125933
-35.72179 -20.20771 25.068127
-33.737274 -24.09845 23.372147
-33.169479 -23.700874 25.311966
-35.038639 -21.886255 23.939821
-34.470848 -21.488682 25.879642
-38.447441 -17.54138 21.281857
-38.651138 -18.469467 19.656136
-38.026348 -18.178123 21.59903
-39.713703 -15.841532 20.072128
-39.088917 -15.550188 22.015024
-37.197868 -16.958693 25.167648
-37.401562 -17.88678 23.541925
-36.776775 -17.595438 25.484823
-38.536152 -15.066196 23.968397
-37.884747 -14.819151 25.905315
-36.556396 -18.949884 24.434481
-35.93161 -18.658543 26.377377
-36.994171 -16.030605 26.793369
-33.341373 -25.54175 21.962954
-33.057022 -25.77673 22.241243
-32.226837 -24.720503 25.839804
-32.487473 -25.383598 24.181961
-31.917927 -24.990469 26.122681
-33.20533 -22.790707 26.690775
-35.507534 -19.0849 26.952755
-33.601234 -21.347406 28.099968
-33.867203 -22.001276 26.440653
-33.299412 -21.603704 28.380474
-35.135422 -19.836967 27.007462
-34.549053 -19.466223 28.946796
-32.601688 -23.303303 27.251787
-32.033894 -22.905727 29.191607
-33.903057 -21.09111 27.819462
-33.335262 -20.693537 29.759283
-32.465645 -20.552259 31.979609
-32.731617 -21.206129 30.320293
-32.163822 -20.808556 32.260117
-33.962685 -19.09548 30.886127
-33.37632 -18.724737 32.825462
-31.466101 -22.508156 31.131428
-30.898308 -22.110582 33.071247
-32.767467 -20.295963 31.699102
-32.199677 -19.89839 33.638924
-35.948296 -16.376007 29.05344
-36.151989 -17.304094 27.427719
-35.527203 -17.012751 29.370615
-37.233345 -14.572107 27.842234
-36.58194 -14.325063 29.77915
-35.306824 -18.367199 28.320274
-34.682037 -18.075855 30.263168
-36.369385 -15.739261 28.736265
-35.744598 -15.447919 30.679161
-34.698719 -15.793321 32.939232
-34.902412 -16.721407 31.313511
-34.277626 -16.430065 33.256409
-35.930538 -14.078019 31.71607
-35.279137 -13.830975 33.652988
-34.057247 -17.784512 32.206066
-33.432461 -17.49317 34.14896
-35.119812 -15.156576 32.622059
-34.495026 -14.865232 34.564953
-31.087749 -23.934246 29.721241
-31.348381 -24.59734 28.063398
-30.778835 -24.20421 30.004118
-32.637539 -22.393135 28.630596
-32.069744 -21.995562 30.570415
-29.536276 -26.424683 28.837038
-29.048538 -25.936947 30.779619
-29.948654 -23.147984 33.602676
-30.209291 -23.811081 31.944836
-29.639742 -23.41795 33.885555
-31.501949 -21.597986 32.510235
-30.934158 -21.200415 34.450058
-28.560801 -25.449209 32.722198
-28.073063 -24.961473 34.66478
-30.25757 -22.878021 33.319805
-29.688023 -22.48489 35.260521
-34.257961 -18.502214 30.838547
-33.371109 -19.783369 31.13809
-33.008385 -17.919529 34.724339
-32.803314 -19.385794 33.077911
-32.235523 -18.98822 35.017731
-33.649857 -15.928335 35.457508
-40.549076 -11.049872 21.9534
-40.136944 -12.082479 22.322454
-39.218243 -10.693275 25.839979
-39.471527 -11.904181 24.265743
-38.80611 -11.725883 26.209034
-40.165211 -8.9666338 24.520329
-39.499794 -8.7883358 26.463617
-41.702545 -3.789777 22.304482
-40.326141 -3.6693549 26.187908
-40.047783 -5.0700092 26.624207
-40.288502 -1.9676501 26.710178
-37.887405 -10.336679 29.726561
-38.140694 -11.547584 28.152325
-37.475273 -11.369286 30.095615
-38.834373 -8.6100368 28.406908
-38.168957 -8.4317389 30.350199
-36.793003 -12.466843 31.062469
-36.556572 -9.9800816 33.61314
-36.809856 -11.190987 32.038906
-36.14444 -11.012689 33.982193
-37.50354 -8.2534399 32.293488
-36.838123 -8.0751419 34.236778
-36.141602 -12.219799 32.999386
-35.490196 -11.972754 34.936306
-36.9687 -8.9474735 33.244083
-36.303284 -8.7691746 35.187374
-38.949738 -3.548934 30.071335
-39.359577 -5.009798 28.56592
-38.656395 -5.0405269 30.513725
-39.600296 -1.907439 28.651892
-38.912098 -1.8472281 30.593605
-37.573334 -3.4285131 33.954762
-37.966232 -4.956728 32.451832
-37.276066 -4.8729291 34.389938
-38.223892 -1.7870179 32.535316
-37.53569 -1.726807 34.477032
-36.879566 -5.2042198 35.375889
-37.163494 -1.967649 35.460175
-36.518322 -12.578694 31.666245
-35.215519 -12.084606 35.540081
-36.828945 -3.910197 35.921055
-20.862995 -44.706303 1.336455
-21.748987 -44.817234 0
-21.500774 -44.284939 1.652566
-22.854666 -44.064953 0.60361201
-22.562952 -43.439369 2.5457981
-19.16304 -45.973232 0.127112
-18.871326 -45.347652 2.0692971
-20.225218 -45.127666 1.0203429
-19.933504 -44.502087 2.9625289
-20.279572 -43.455147 5.2208281
-22.271242 -42.813793 4.4879861
-21.97953 -42.188217 6.430172
-18.579615 -44.722076 4.0114851
-19.641792 -43.876507 4.904716
-19.35008 -43.250927 6.8469019
-21.875008 -40.62973 0
-23.437508 -42.191441 0
-23.62513 -42.5938 3.4390299
-23.437508 -39.06802 0
-25.068567 -41.397415 4.2891388
-20.312508 -42.191441 0
-20.995682 -43.656513 3.8557611
-20.312508 -39.06802 0
-20.312508 -39.06802 0
-22.403927 -41.764004 7.0072918
-23.33342 -41.968224 5.381217
-23.041708 -41.342644 7.3234038
-24.673491 -40.833191 6.2325082
-24.278416 -40.268963 8.1758766
-20.70397 -43.030937 5.7979479
-20.412258 -42.405357 7.7401338
-21.766148 -42.185364 6.6911802
-21.474436 -41.559784 8.6333666
-15.557741 -46.62553 2.0949161
-16.770388 -46.881565 0.519633
-16.591412 -46.213619 2.4607949
-17.595768 -46.19038 1.437075
-17.304056 -45.5648 3.3792601
-13.831149 -47.574837 0.77531302
-13.652174 -46.906895 2.716475
-14.062508 -45.314861 0
-14.345095 -46.369492 3.670198
-15.19979 -45.289639 5.9772391
-16.412437 -45.545677 4.401957
-16.233461 -44.877731 6.3431191
-17.012344 -44.939224 5.3214469
-16.720633 -44.313644 7.2636352
-13.473199 -46.238949 4.6576371
-13.294223 -45.571007 6.5987978
-14.16612 -45.701546 5.6113601
-13.987144 -45.033604 7.5525222
-15.625008 -40.62973 0
-17.187508 -42.191441 0
-18.366234 -44.719227 4.2724919
-17.187508 -39.06802 0
-17.187508 -39.06802 0
-14.062508 -42.191441 0
-14.062508 -42.191441 0
-14.062508 -39.06802 0
-14.062508 -39.06802 0
-17.145031 -43.889435 7.840755
-18.074522 -44.093651 6.2146802
-17.78281 -43.468075 8.156867
-19.1367 -43.248077 7.1079111
-18.844988 -42.622501 9.0500984
-14.859043 -45.164146 6.5650849
-14.680067 -44.496204 8.5062485
-19.696148 -42.203987 9.1052008
-21.687817 -41.562637 8.3723583
-19.058369 -42.625351 8.7890892
-18.766657 -41.999775 10.731277
-19.112724 -40.952831 12.989574
-18.474945 -41.374191 12.673463
-21.820503 -40.512844 10.891665
-22.749994 -40.717064 9.2655907
-22.417454 -40.111931 11.204189
-23.883341 -39.704735 10.119246
-23.488266 -39.140511 12.062615
-20.120546 -41.779778 9.6823215
-19.828835 -41.154202 11.624509
-21.182724 -40.934208 10.575553
-20.891012 -40.308628 12.51774
-21.23708 -39.261688 14.776038
-22.038778 -39.526375 13.13772
-21.715378 -38.910179 15.075274
-23.093189 -38.576283 14.005984
-22.698112 -38.012054 15.949351
-19.537123 -40.528622 13.566694
-19.245411 -39.903042 15.508882
-20.5993 -39.683048 14.459927
-20.307589 -39.057472 16.402113
-14.841839 -43.953751 9.8595619
-16.054485 -44.209789 8.2842808
-16.428921 -43.688065 9.205821
-16.137209 -43.062489 11.148007
-13.115248 -44.903061 8.5399599
-12.936272 -44.235111 10.481121
-13.808169 -44.365658 9.4936838
-13.629192 -43.697712 11.434844
-14.483888 -42.617859 13.741885
-15.845496 -42.436909 13.090194
-15.553785 -41.811329 15.032381
-13.450217 -43.029766 13.376006
-13.271242 -42.36182 15.317167
-16.561607 -42.638275 11.725128
-17.491098 -42.842491 10.099052
-17.199387 -42.216915 12.04124
-18.553276 -41.996922 10.992285
-18.261564 -41.371346 12.934471
-14.501092 -43.828259 10.44741
-14.322116 -43.160313 12.38857
-15.194015 -43.290855 11.401134
-15.015038 -42.62291 13.342295
-15.978184 -41.387119 15.609501
-16.907675 -41.591335 13.983425
-16.615963 -40.965759 15.925612
-17.969852 -40.745762 14.876657
-17.678141 -40.120186 16.818844
-14.143141 -42.492367 14.329732
-13.964166 -41.824421 16.270893
-14.836062 -41.954964 15.283456
-14.657087 -41.287018 17.224619
-21.875008 -34.382889 0
-23.437508 -35.944599 0
-23.437508 -35.944599 0
-23.437508 -32.821178 0
-23.437508 -32.821178 0
-20.312508 -35.944599 0
-20.312508 -35.944599 0
-20.312508 -32.821178 0
-20.312508 -32.821178 0
-25.325752 -39.311069 8.6948376
-25.977238 -39.571716 7.0381389
-25.582163 -39.007488 8.9815083
-21.875008 -28.136051 0
-23.437508 -29.697762 0
-23.437508 -29.697762 0
-23.437508 -26.574341 0
-23.437508 -26.574341 0
-20.312508 -29.697762 0
-20.312508 -29.697762 0
-20.312508 -26.574341 0
-20.312508 -26.574341 0
-21.875008 -28.136051 0
-15.625008 -34.382889 0
-17.187508 -35.944599 0
-17.187508 -35.944599 0
-17.187508 -32.821178 0
-17.187508 -32.821178 0
-14.062508 -35.944599 0
-14.062508 -35.944599 0
-14.062508 -32.821178 0
-14.062508 -32.821178 0
-15.625008 -34.382889 0
-15.625008 -28.136051 0
-17.187508 -29.697762 0
-17.187508 -29.697762 0
-17.187508 -26.574341 0
-17.187508 -26.574341 0
-14.062508 -29.697762 0
-14.062508 -29.697762 0
-14.062508 -26.574341 0
-14.062508 -26.574341 0
-15.625008 -28.136051 0
-24.535601 -38.182613 12.581573
-25.187088 -38.44326 10.924877
-24.792013 -37.879036 12.868246
-26.09576 -36.617561 13.673878
-22.244902 -40.088634 11.468785
-22.111769 -39.372822 13.421839
-23.745449 -37.054161 16.468311
-24.396936 -37.314808 14.811615
-24.001862 -36.75058 16.754984
-25.700684 -36.053333 15.617247
-25.305607 -35.489105 17.560614
-21.788366 -38.756626 15.359391
-21.464964 -38.14043 17.296946
-27.143093 -35.659664 14.192835
-26.352942 -34.531212 18.079573
-18.685963 -40.947132 13.511592
-18.102539 -39.695976 17.395966
-19.03203 -39.900192 15.76989
-18.740318 -39.274612 17.712076
-9.6792641 -48.012077 2.6062751
-10.89191 -48.268108 1.030992
-10.712934 -47.600166 2.9721539
-10.937506 -45.314861 0
-11.405855 -47.062763 3.9258771
-7.8502078 -48.869221 1.247157
-7.7901511 -48.182758 3.190289
-7.8125062 -45.314861 0
-8.0310431 -47.812763 4.170455
-9.321312 -46.676186 6.4885969
-10.533958 -46.93222 4.9133158
-10.354983 -46.264278 6.8544769
-11.22688 -46.394817 5.8670392
-11.047905 -45.726875 7.8082008
-7.730093 -47.496292 5.1334219
-7.6700349 -46.80983 7.0765538
-7.9709849 -47.126301 6.1135859
-7.9109278 -46.439838 8.0567198
-9.3750057 -40.62973 0
-10.937506 -42.191441 0
-10.937506 -42.191441 0
-10.937506 -39.06802 0
-10.937506 -39.06802 0
-7.8125062 -42.191441 0
-7.8125062 -42.191441 0
-7.8125062 -39.06802 0
-7.8125062 -39.06802 0
-10.707156 -45.601379 8.3960466
-11.919803 -45.857418 6.820765
-11.740828 -45.189476 8.7619267
-8.9805651 -46.550694 7.0764441
-8.80159 -45.882748 9.0176058
-3.2847531 -48.702511 2.8374989
-4.7462931 -49.110233 1.332953
-4.686235 -48.423767 3.2760849
-4.6875048 -45.314861 0
-4.9271278 -48.053776 4.2562499
-1.642378 -49.35125 1.41875
-1.582321 -48.664783 3.361882
-1.5625041 -45.314861 0
-1.823213 -48.294788 4.3420472
-3.164638 -47.329586 6.723763
-4.6261778 -47.737305 5.2192168
-4.5661211 -47.050846 7.1623511
-4.8670702 -47.36731 6.1993818
-4.807013 -46.680847 8.1425142
-1.5222631 -47.978321 5.3050141
-1.462206 -47.291862 7.248147
-1.763155 -47.608326 6.2851791
-1.7030981 -46.921864 8.2283115
-3.1250041 -40.62973 0
-4.6875048 -42.191441 0
-4.6875048 -42.191441 0
-4.6875048 -39.06802 0
-4.6875048 -39.06802 0
-1.5625041 -42.191441 0
-1.5625041 -42.191441 0
-1.5625041 -39.06802 0
-1.5625041 -39.06802 0
-3.6464231 -46.589596 8.6840963
-5.047905 -46.310852 9.1226807
-1.94399 -46.551868 9.208477
-8.9633617 -45.340298 10.370921
-10.176008 -45.596333 8.795639
-9.9970322 -44.928387 10.7368
-10.868929 -45.058929 9.7493629
-10.689953 -44.390984 11.690523
-7.6099782 -46.123371 9.0196877
-7.549921 -45.436905 10.96282
-7.9173331 -45.740158 10.000624
-7.7511592 -45.065968 11.939445
-8.663455 -43.989712 14.247663
-9.8180561 -44.260441 12.677961
-10.510978 -43.723038 13.631685
-10.332003 -43.055096 15.572847
-7.4898629 -44.750443 12.905952
-7.4298062 -44.06398 14.849085
-7.5849862 -44.391781 13.878265
-7.4188132 -43.717594 15.817087
-10.349206 -44.265491 12.27837
-11.561852 -44.52153 10.703089
-11.382876 -43.853584 12.644249
-12.075798 -43.316181 13.597974
-8.5605927 -45.226536 10.963264
-8.3944187 -44.552345 12.902085
-9.9912539 -42.9296 16.160692
-11.2039 -43.185638 14.585411
-11.024925 -42.517696 16.526573
-11.896823 -42.648235 15.539135
-11.717848 -41.980293 17.480297
-8.2282457 -43.878159 14.840906
-8.0620728 -43.203968 16.779728
-8.9575844 -43.341507 15.794815
-8.7786093 -42.673565 17.735977
-3.044523 -45.956661 10.610029
-4.506063 -46.36438 9.1054831
-4.4460049 -45.677917 11.048615
-4.7469549 -45.994389 10.085648
-4.6868982 -45.307922 12.02878
-1.402148 -46.605396 9.1912804
-1.342091 -45.918934 11.134413
-1.643041 -46.235401 10.171445
-1.582983 -45.548939 12.114577
-2.924408 -44.583733 14.496294
-4.3859482 -44.991455 12.991748
-4.325891 -44.304993 14.93488
-4.6268401 -44.62146 13.971912
-4.566782 -43.934998 15.915045
-1.282033 -45.232471 13.077544
-1.221976 -44.546005 15.020677
-1.522926 -44.862476 14.05771
-1.462868 -44.17601 16.000841
-3.5263081 -45.216671 12.570362
-4.9878478 -45.624393 11.065814
-4.9277911 -44.937927 13.008946
-1.8839329 -45.86541 11.151611
-1.823876 -45.178944 13.094744
-3.406193 -43.843742 16.456627
-4.867733 -44.251465 14.952079
-4.8076749 -43.565002 16.89521
-5.0485678 -43.195007 17.875378
-1.763818 -44.492481 15.037876
-1.703761 -43.806019 16.981009
-1.944653 -43.436024 17.961174
-9.3750057 -34.382889 0
-10.937506 -35.944599 0
-10.937506 -35.944599 0
-10.937506 -32.821178 0
-10.937506 -32.821178 0
-7.8125062 -35.944599 0
-7.8125062 -35.944599 0
-7.8125062 -32.821178 0
-7.8125062 -32.821178 0
-9.3750057 -34.382889 0
-9.3750057 -28.136051 0
-10.937506 -29.697762 0
-10.937506 -29.697762 0
-10.937506 -26.574341 0
-10.937506 -26.574341 0
-7.8125062 -29.697762 0
-7.8125062 -29.697762 0
-7.8125062 -26.574341 0
-7.8125062 -26.574341 0
-9.3750057 -28.136051 0
-3.1250041 -34.382889 0
-4.6875048 -35.944599 0
-4.6875048 -35.944599 0
-4.6875048 -32.821178 0
-4.6875048 -32.821178 0
-1.5625041 -35.944599 0
-1.5625041 -35.944599 0
-1.5625041 -32.821178 0
-1.5625041 -32.821178 0
-3.1250041 -34.382889 0
-3.1250041 -28.136051 0
-4.6875048 -29.697762 0
-4.6875048 -29.697762 0
-4.6875048 -26.574341 0
-4.6875048 -26.574341 0
-1.5625041 -29.697762 0
-1.5625041 -29.697762 0
-1.5625041 -26.574341 0
-1.5625041 -26.574341 0
-3.1250041 -28.136051 0
-11.735051 -43.190689 14.185821
-11.3771 -41.854797 18.068144
-3.8879781 -43.103756 18.416958
-18.529301 -39.701675 16.873947
-20.653656 -38.010529 18.660412
-21.391973 -38.293983 17.012825
-22.303038 -37.447826 17.892721
-21.940353 -36.861816 19.834015
-18.953699 -39.277462 17.451067
-18.661987 -38.651886 19.393255
-20.015877 -38.431892 18.344299
-19.724165 -37.806313 20.286488
-19.889059 -36.845806 22.527628
-21.641516 -36.232872 21.771217
-21.342678 -35.603928 23.70842
-18.370275 -38.02631 21.335442
-19.432453 -37.180737 22.228674
-19.140741 -36.555157 24.17086
-14.125937 -41.281971 17.624208
-15.262073 -41.185749 16.974567
-13.092267 -41.693878 17.258329
-12.913291 -41.025928 19.19949
-13.767986 -39.946083 21.506533
-15.39476 -40.135963 19.493874
-16.324249 -40.340179 17.867798
-16.032539 -39.7146 19.809986
-17.386427 -39.494606 18.76103
-17.094717 -38.86903 20.703218
-13.78519 -41.156479 18.212055
-13.606214 -40.488529 20.153215
-14.478112 -40.619076 19.165779
-14.299137 -39.95113 21.106941
-14.811336 -38.884804 23.378248
-15.740828 -39.089024 21.752172
-15.449115 -38.463444 23.694359
-16.803005 -38.24345 22.645405
-16.511292 -37.61787 24.587591
-13.427238 -39.820587 22.094378
-13.248263 -39.152641 24.03554
-14.12016 -39.283184 23.048101
-13.941185 -38.615238 24.989264
-19.242252 -35.613411 26.402733
-18.84903 -35.929581 26.113047
-18.533794 -35.315781 28.053165
-18.595449 -34.381027 30.27784
-13.410035 -38.610191 25.388855
-14.227912 -37.633648 27.262621
-16.219582 -36.992294 26.529778
-15.927868 -36.366714 28.471964
-13.069287 -38.484699 25.976702
-12.890312 -37.816753 27.917864
-13.76221 -37.947296 26.930426
-13.583235 -37.27935 28.871588
-13.644489 -36.382492 31.146996
-15.636157 -35.741135 30.41415
-15.344444 -35.115555 32.356339
-13.40426 -36.611404 30.81275
-13.225283 -35.943459 32.75391
-22.955299 -35.925705 20.355049
-23.606785 -36.186352 18.698353
-23.21171 -35.622124 20.641722
-24.910532 -34.924877 19.503983
-24.515455 -34.360649 21.447353
-21.141562 -37.524235 19.234497
-20.818159 -36.908043 21.17205
-22.698887 -36.229286 20.068378
-22.303812 -35.665058 22.011747
-22.165148 -34.797253 24.241789
-22.816633 -35.057899 22.585091
-22.421558 -34.493671 24.52846
-24.12038 -33.796425 23.390722
-23.725306 -33.232197 25.334091
-20.494757 -36.291847 23.109604
-20.171354 -35.675652 25.047157
-21.908735 -35.10083 23.955116
-21.51366 -34.536606 25.898485
-25.56279 -33.402756 21.966312
-25.819201 -33.099174 22.252983
-24.772638 -32.2743 25.853048
-25.424126 -32.53495 24.196352
-25.029051 -31.970722 26.139721
-22.817406 -33.275131 26.704115
-17.519115 -38.444817 21.280338
-18.448605 -38.649033 19.654263
-18.156895 -38.023457 21.596449
-15.819157 -39.711746 20.070993
-15.527446 -39.08617 22.01318
-16.935692 -37.193661 25.164711
-17.865183 -37.397881 23.538637
-17.573469 -36.772297 25.480824
-18.927361 -36.552307 24.43187
-18.635647 -35.926727 26.374054
-15.235734 -38.460594 23.955368
-14.944021 -37.835014 25.897554
-16.006199 -36.989441 26.790785
-19.388233 -35.306313 26.97097
-21.374996 -33.668797 28.128525
-22.026484 -33.929443 26.471828
-21.631409 -33.365219 28.415197
-23.330231 -32.667969 27.27746
-22.935154 -32.103745 29.220829
-19.84795 -35.059456 26.984711
-19.524549 -34.443264 28.922264
-21.118586 -33.972378 27.841854
-20.723511 -33.40815 29.785223
-20.584845 -32.540344 32.015263
-21.236332 -32.800991 30.358566
-20.841255 -32.236763 32.301933
-22.540077 -31.539515 31.164196
-22.145004 -30.97529 33.107567
-19.201145 -33.827065 30.859816
-18.877745 -33.210873 32.797371
-20.328434 -32.843925 31.728592
-19.933357 -32.279694 33.671959
-23.982487 -31.145847 29.739786
-24.633976 -31.406496 28.08309
-24.238899 -30.84227 30.026459
-26.208698 -29.702362 28.846056
-25.746906 -29.181108 30.783211
-22.422331 -32.710903 28.647484
-22.027256 -32.146679 30.590853
-23.192337 -30.017395 33.626526
-23.843822 -30.27804 31.969826
-23.450426 -29.712343 33.913254
-25.285116 -28.659857 32.720367
-24.823326 -28.138603 34.657524
-21.632179 -31.582451 32.534222
-21.237103 -31.018221 34.477589
-22.935925 -30.320972 33.339851
-22.540852 -29.75675 35.283222
-16.352266 -35.942501 29.049084
-17.281759 -36.146721 27.42301
-16.990046 -35.521141 29.365196
-18.343937 -35.301147 28.316242
-18.135731 -34.627876 30.264099
-14.65231 -37.209435 27.839741
-14.360598 -36.583855 29.781927
-15.714488 -36.363865 28.732973
-15.422775 -35.738281 30.675159
-15.768845 -34.691349 32.93346
-16.698334 -34.895565 31.307383
-16.406622 -34.269981 33.249569
-17.812328 -34.011681 32.201653
-17.488926 -33.395485 34.139206
-14.068886 -35.958279 31.724113
-13.777175 -35.332703 33.666302
-15.131063 -35.112705 32.617348
-14.839353 -34.487129 34.559532
-18.741428 -34.073921 30.846075
-19.274136 -33.673515 31.143934
-18.094624 -32.84153 34.72118
-18.950731 -33.05732 33.081486
-18.627331 -32.441128 35.019039
-15.901527 -33.641556 35.452763
-8.3311081 -42.641331 18.125303
-10.153027 -42.38715 17.514009
-9.9740515 -41.719204 19.45517
-7.2526388 -43.043404 17.755909
-7.087419 -42.368984 19.694721
-7.9987621 -41.292953 22.002947
-9.7950754 -41.051258 21.396332
-6.9304051 -41.692551 21.633507
-6.7733922 -41.016121 23.572287
-9.6333036 -41.593708 20.043016
-10.84595 -41.849751 18.467735
-10.666974 -41.181805 20.408895
-11.538872 -41.312347 19.421459
-11.359897 -40.644402 21.362621
-7.8958998 -42.529781 18.71855
-7.7297258 -41.855595 20.65737
-8.5391588 -42.016155 19.681189
-8.3729858 -41.341965 21.62001
-9.2753515 -40.25782 23.925341
-10.487999 -40.513859 22.350058
-10.309023 -39.845913 24.29122
-11.180921 -39.976456 23.303782
-11.001945 -39.30851 25.244944
-7.5635529 -41.181404 22.596191
-7.3973789 -40.507214 24.535011
-8.2068129 -40.667778 23.558832
-8.0406389 -39.993587 25.497652
-2.8042929 -43.210808 18.382559
-4.5067248 -43.248531 17.858177
-4.4466681 -42.562069 19.80131
-1.161918 -43.859543 16.96381
-1.40281 -43.489548 17.943974
-1.3427531 -42.803085 19.887106
-2.6841781 -41.837883 22.268826
-4.386611 -41.87561 21.744444
-4.3265529 -41.189144 23.687576
-1.282696 -42.116623 21.83024
-1.222638 -41.430161 23.773373
-3.286078 -42.470818 20.342892
-4.7476182 -42.87854 18.838343
-4.6875601 -42.192074 20.781475
-4.9885111 -42.508545 19.81851
-4.928453 -41.822079 21.761642
-1.643703 -43.119553 18.924141
-1.5836461 -42.43309 20.867273
-1.884596 -42.749557 19.904306
-1.824538 -42.063095 21.847439
-3.1659629 -41.097893 24.229156
-4.6275029 -41.505615 22.724609
-4.5674448 -40.819153 24.667742
-4.8683958 -41.13562 23.704775
-4.8083382 -40.449158 25.647907
-1.5235879 -41.746632 22.810406
-1.463531 -41.060165 24.753538
-1.7644809 -41.376637 23.790573
-1.704423 -40.69017 25.733704
-7.6664152 -39.944576 25.880589
-7.3340678 -38.596199 29.75823
-8.9174013 -38.921928 27.807663
-10.130048 -39.177971 26.23238
-9.9510727 -38.510025 28.173542
-10.82297 -38.640568 27.186106
-10.643994 -37.972622 29.127268
-7.2312059 -39.833027 26.473833
-7.065033 -39.158836 28.412655
-7.874465 -39.319401 27.436472
-7.708292 -38.64521 29.375294
-8.6205873 -37.568951 31.683512
-9.7720966 -37.842079 30.114702
-10.465019 -37.30468 31.068428
-10.286043 -36.63673 33.00959
-6.89886 -38.48465 30.351477
-6.732687 -37.810463 32.290298
-7.542119 -37.971024 31.314116
-7.375946 -37.296837 33.252937
-2.5640631 -40.464954 26.155088
-1.162581 -40.743698 25.716505
-2.443948 -39.09203 30.041353
-3.0458479 -39.724964 28.115421
-4.5073881 -40.132687 26.610874
-4.44733 -39.446224 28.554007
-4.748281 -39.762691 27.59104
-4.6882229 -39.076229 29.534172
-1.403473 -40.373703 26.696671
-1.343416 -39.687241 28.639803
-1.644366 -40.003708 27.676836
-1.584308 -39.317245 29.619968
-2.9257331 -38.352039 32.001686
-4.3872728 -38.759758 30.497139
-4.3272152 -38.073296 32.440269
-4.6281648 -38.389767 31.477304
-4.5681081 -37.7033 33.420437
-1.316465 -38.998661 30.58075
-1.399707 -38.303032 32.514416
-1.524251 -38.630779 31.563101
-1.464193 -37.944317 33.506233
-11.019149 -40.518906 21.950466
-12.052818 -40.106998 22.316345
-10.661198 -39.183018 25.83279
-11.873843 -39.439053 24.257505
-11.694867 -38.771111 26.198668
-8.9346046 -40.132324 24.513186
-8.683898 -39.479961 26.460291
-3.767863 -41.730827 22.303223
-3.647748 -40.357903 26.189489
-5.0492311 -40.079163 26.628075
-1.945316 -40.320175 26.713871
-10.303246 -37.847126 29.715113
-11.515892 -38.103165 28.13983
-11.336917 -37.435219 30.080992
-12.02984 -36.89782 31.034718
-8.517725 -38.805771 28.399113
-8.3515511 -38.131584 30.337934
-9.9452963 -36.511238 33.597435
-11.157941 -36.767273 32.022152
-10.978965 -36.099327 33.963314
-11.850863 -36.229874 32.97588
-11.671888 -35.561928 34.917042
-8.1853781 -37.457397 32.276756
-8.0192051 -36.783207 34.215576
-8.9116259 -36.923145 33.231556
-8.6624641 -36.269581 35.178215
-11.689091 -36.772324 31.622562
-11.331141 -35.436436 35.504887
-3.527633 -38.984978 30.075754
-4.9891729 -39.392696 28.571207
-4.9291158 -38.706234 30.514338
-1.885258 -39.633713 28.657003
-1.825201 -38.94725 30.600136
-3.4075179 -37.612049 33.962017
-4.8690581 -38.019772 32.45747
-4.809 -37.333305 34.400604
-5.0498929 -36.963318 35.380772
-1.765143 -38.260788 32.543266
-1.705086 -37.574322 34.486401
-1.945978 -37.204327 35.466568
-3.889303 -36.872055 35.922348
-21.875008 -21.88921 0
-23.437508 -23.45092 0
-23.437508 -23.45092 0
-23.437508 -20.327499 0
-23.437508 -20.327499 0
-20.312508 -23.45092 0
-20.312508 -23.45092 0
-20.312508 -20.327499 0
-20.312508 -20.327499 0
-21.875008 -21.88921 0
-21.875008 -15.642371 0
-23.437508 -17.204081 0
-23.437508 -17.204081 0
-23.437508 -14.080662 0
-23.437508 -14.080662 0
-20.312508 -17.204081 0
-20.312508 -17.204081 0
-20.312508 -14.080662 0
-20.312508 -14.080662 0
-21.875008 -15.642371 0
-15.625008 -21.88921 0
-17.187508 -23.45092 0
-17.187508 -23.45092 0
-17.187508 -20.327499 0
-17.187508 -20.327499 0
-14.062508 -23.45092 0
-14.062508 -23.45092 0
-14.062508 -20.327499 0
-14.062508 -20.327499 0
-15.625008 -21.88921 0
-15.625008 -15.642371 0
-17.187508 -17.204081 0
-17.187508 -17.204081 0
-17.187508 -14.080662 0
-17.187508 -14.080662 0
-14.062508 -17.204081 0
-14.062508 -17.204081 0
-14.062508 -14.080662 0
-14.062508 -14.080662 0
-15.625008 -15.642371 0
-21.875008 -9.3955317 0
-23.437508 -10.957241 0
-23.437508 -10.957241 0
-23.437508 -7.8338208 0
-23.437508 -7.8338208 0
-20.312508 -10.957241 0
-20.312508 -10.957241 0
-20.312508 -7.8338208 0
-20.312508 -7.8338208 0
-21.875008 -9.3955317 0
-21.875008 -3.1486909 2e-06
-23.437508 -4.710402 1e-06
-23.437508 -4.7104011 1e-06
-23.437508 -1.586982 2e-06
-23.437508 -1.586982 2e-06
-20.312508 -4.710402 1e-06
-20.312508 -4.7104011 1e-06
-20.312508 -1.586982 2e-06
-20.312508 -1.586982 2e-06
-21.875008 -3.14869 2e-06
-15.625008 -9.3955317 0
-17.187508 -10.957241 0
-17.187508 -10.957241 0
-17.187508 -7.8338208 0
-17.187508 -7.8338208 0
-14.062508 -10.957241 0
-14.062508 -10.957241 0
-14.062508 -7.8338208 0
-14.062508 -7.8338208 0
-15.625008 -9.3955317 0
-15.625008 -3.1486909 2e-06
-17.187508 -4.710402 1e-06
-17.187508 -4.7104011 1e-06
-17.187508 -1.586982 2e-06
-17.187508 -1.586982 2e-06
-14.062508 -4.710402 1e-06
-14.062508 -4.7104011 1e-06
-14.062508 -1.586982 2e-06
-14.062508 -1.586982 2e-06
-15.625008 -3.14869 2e-06
-9.3750057 -21.88921 0
-10.937506 -23.45092 0
-10.937506 -23.45092 0
-10.937506 -20.327499 0
-10.937506 -20.327499 0
-7.8125062 -23.45092 0
-7.8125062 -23.45092 0
-7.8125062 -20.327499 0
-7.8125062 -20.327499 0
-9.3750057 -21.88921 0
-9.3750057 -15.642371 0
-10.937506 -17.204081 0
-10.937506 -17.204081 0
-10.937506 -14.080662 0
-10.937506 -14.080662 0
-7.8125062 -17.204081 0
-7.8125062 -17.204081 0
-7.8125062 -14.080662 0
-7.8125062 -14.080662 0
-9.3750057 -15.642371 0
-3.1250041 -21.88921 0
-4.6875048 -23.45092 0
-4.6875048 -23.45092 0
-4.6875048 -20.327499 0
-4.6875048 -20.327499 0
-1.5625041 -23.45092 0
-1.5625041 -23.45092 0
-1.5625041 -20.327499 0
-1.5625041 -20.327499 0
-3.1250041 -21.88921 0
-3.1250041 -15.642371 0
-4.6875048 -17.204081 0
-4.6875048 -17.204081 0
-4.6875048 -14.080662 0
-4.6875048 -14.080662 0
-1.5625041 -17.204081 0
-1.5625041 -17.204081 0
-1.5625041 -14.080662 0
-1.5625041 -14.080662 0
-3.1250041 -15.642371 0
-9.3750057 -9.3955317 0
-10.937506 -10.957241 0
-10.937506 -10.957241 0
-10.937506 -7.8338208 0
-10.937506 -7.8338208 0
-7.8125062 -10.957241 0
-7.8125062 -10.957241 0
-7.8125062 -7.8338208 0
-7.8125062 -7.8338208 0
-9.3750057 -9.3955317 0
-9.3750057 -3.1486919 2e-06
-10.937506 -4.710402 1e-06
-10.937506 -4.7104011 1e-06
-10.937506 -1.586982 2e-06
-10.937506 -1.586982 2e-06
-7.8125062 -4.710402 1e-06
-7.8125062 -4.7104011 1e-06
-7.8125062 -1.586982 2e-06
-7.8125062 -1.586982 2e-06
-9.3750057 -3.1486919 2e-06
-3.1250041 -9.3955317 0
-4.6875048 -10.957241 0
-4.6875048 -10.957241 0
-4.6875048 -7.8338208 0
-4.6875048 -7.8338208 0
-1.5625041 -10.957241 0
-1.5625041 -10.957241 0
-1.5625041 -7.8338208 0
-1.5625041 -7.8338208 0
-3.1250041 -9.3955317 0
-3.1250041 -3.1486919 1e-06
-4.6875048 -4.710402 1e-06
-4.6875048 -4.7104011 1e-06
-4.6875048 -1.586982 2e-06
-4.6875048 -1.586982 2e-06
-1.5625041 -4.710402 1e-06
-1.5625041 -4.7104011 1e-06
-1.5625041 -1.586982 1e-06
-1.5625041 -1.586982 1e-06
-3.125005 -3.1486919 1e-06
-28.355152 -28.369343 27.316526
-27.379677 -27.393867 31.201689
-26.404202 -26.418396 35.086849
-26.335627 -26.349033 35.361549
-28.713005 -24.227848 34.73418
-29.021917 -23.957882 34.451305
-27.573912 -23.441586 38.615616
-23.560539 -29.23068 34.713032
-23.523832 -29.391232 34.446438
-22.636957 -28.188173 38.587345
-26.129892 -26.14094 36.185646
-26.549053 -26.559313 34.517765
-27.935911 -24.822748 35.21418
-27.448174 -24.335012 37.156761
-24.896736 -27.817497 35.190708
-24.434944 -27.296244 37.127865
-26.198473 -26.210306 35.91095
-25.710735 -25.72257 37.853531
-25.154417 -25.165466 40.070808
-26.960438 -23.847275 39.099342
-26.472696 -23.359535 41.041924
-23.973154 -26.77499 39.065022
-23.511364 -26.253738 41.002178
-25.222998 -25.234833 39.796112
-24.735256 -24.747093 41.738689
-24.178942 -24.189993 43.955971
-24.24752 -24.259357 43.681271
-23.759781 -23.77162 45.623852
-23.203466 -23.21452 47.841129
-22.227991 -22.239046 51.726292
-33.014351 -18.340302 34.207932
-34.902412 -13.472079 34.98613
-35.333652 -12.666493 34.659332
-33.599606 -12.977989 38.859966
-32.296799 -12.483901 42.733803
-37.685711 -2.344723 33.905602
-36.295414 -8.2354174 35.598526
-36.013859 -10.140356 34.974888
-35.348438 -9.9620571 36.918175
-36.677299 -7.3240352 35.223362
-35.98605 -7.2492938 37.16143
-34.964577 -7.8788199 39.485107
-34.683022 -9.7837582 38.861465
-35.2948 -7.1745529 39.099503
-34.60355 -7.099813 41.037571
-36.941319 -2.826407 35.871895
-37.591877 -1.184912 34.45245
-36.982403 -4.4578381 35.342098
-36.292236 -4.3740382 37.280209
-37.219685 -1.425754 35.435596
-36.531479 -1.365543 37.377312
-35.564911 -2.705986 39.755322
-35.602074 -4.2902389 39.218315
-34.911911 -4.20644 41.156425
-35.843277 -1.305333 39.319023
-35.155079 -1.245122 41.260738
-33.633739 -7.522223 43.371685
-32.302906 -7.165626 47.258266
-34.188507 -2.5855651 43.638748
-34.466873 -1.184911 43.20245
-32.812107 -2.465143 47.522175
-31.330057 -19.757113 35.859249
-32.789951 -18.353994 34.764793
-32.203583 -17.983252 36.704128
-30.330515 -21.713009 35.01107
-29.74786 -21.335545 36.953354
-31.63188 -19.500814 35.578743
-31.064089 -19.103243 37.518566
-30.194473 -18.961966 39.738892
-29.178312 -20.942413 38.89407
-30.496296 -18.705669 39.458385
-29.928503 -18.308096 41.398205
-33.449146 -15.210634 36.825024
-33.65284 -16.138721 35.199303
-33.028053 -15.847379 37.1422
-34.627731 -13.583929 35.589905
-33.97633 -13.336885 37.526825
-32.807671 -17.201826 36.091858
-32.182888 -16.910484 38.034752
-33.870235 -14.573889 36.507851
-33.245449 -14.282546 38.450748
-32.19957 -14.627948 40.710819
-32.403263 -15.556035 39.085094
-31.778477 -15.264692 41.027992
-33.324928 -13.089841 39.463741
-32.673527 -12.842797 41.400661
-31.558098 -16.619139 39.97765
-30.933313 -16.327797 41.920547
-32.620663 -13.991202 40.393642
-31.967613 -13.760236 42.331234
-28.809565 -22.361727 37.484116
-29.070198 -23.02482 35.826271
-28.500652 -22.631691 37.766991
-30.366364 -20.802839 36.389877
-29.798571 -20.405266 38.329697
-27.585325 -24.473736 36.607361
-27.097588 -23.986 38.549942
-29.118477 -22.091761 37.201241
-28.548931 -21.698631 39.14196
-27.670471 -21.575466 41.365551
-27.931103 -22.23856 39.70771
-27.361559 -21.84543 41.648426
-29.230778 -20.007694 40.26952
-28.662985 -19.610121 42.209339
-26.60985 -23.498262 40.492523
-26.12211 -23.010525 42.435104
-27.979383 -21.3055 41.082676
-27.409838 -20.912371 43.023396
-31.401758 -17.936777 38.616867
-31.667728 -18.590647 36.95755
-31.099936 -18.193073 38.897369
-33.02507 -15.636993 37.400402
-32.40028 -15.34565 39.3433
-29.834423 -19.495102 39.708508
-30.266172 -17.141632 42.496506
-30.532143 -17.795502 40.837193
-29.96435 -17.397928 42.777012
-31.775496 -15.054307 41.286198
-31.150707 -14.762963 43.229092
-29.266628 -19.097527 41.648327
-28.698835 -18.699955 43.588146
-30.305542 -15.826068 44.121647
-29.058886 -18.166819 43.61853
-29.360708 -17.910522 43.338024
-27.923302 -17.371674 47.498173
-30.949997 -14.045261 44.596611
-32.022121 -12.595753 43.337578
-30.308523 -16.036453 43.863441
-29.683739 -15.745111 45.806339
-31.316208 -13.51319 44.268154
-30.664804 -13.266146 46.20507
-29.700422 -13.462576 48.482403
-29.058949 -15.453767 47.749233
-30.013399 -13.019101 48.141987
-29.362 -12.772058 50.078907
-26.53138 -20.789207 45.24699
-26.792013 -21.452301 43.589146
-26.222467 -21.059172 45.529865
-28.087502 -19.223093 44.150475
-27.517956 -18.829964 46.091194
-25.634373 -22.522787 44.377686
-25.146635 -22.035051 46.320267
-26.840292 -20.519241 44.964111
-26.270748 -20.126112 46.904831
-25.392286 -20.002945 49.128426
-26.948412 -18.436834 48.031914
-26.378862 -18.043703 49.97263
-24.658897 -21.547314 48.262844
-24.17116 -21.059578 50.205425
-25.701202 -19.732983 48.845551
-25.131655 -19.339851 50.786266
-29.130585 -16.346485 46.376148
-29.396555 -17.000353 44.716831
-28.828762 -16.602781 46.656654
-30.525921 -14.471621 45.171989
-29.901133 -14.180277 47.114883
-28.131042 -18.302382 45.527969
-27.563248 -17.904806 47.467789
-29.680752 -15.534723 46.064541
-29.055967 -15.243382 48.007439
-27.995001 -15.551339 50.255791
-28.260967 -16.205206 48.596474
-27.693174 -15.807633 50.536293
-29.276344 -13.888933 49.057781
-28.651558 -13.59759 51.000675
-26.995455 -17.507235 49.407608
-26.427143 -17.110645 51.347595
-28.431179 -14.952038 49.950333
-27.806393 -14.660695 51.89323
-35.225735 -9.6234837 37.499718
-35.479023 -10.83439 35.925484
-34.813606 -10.656092 37.868774
-36.172707 -7.896843 36.180069
-35.507286 -7.718544 38.123356
-34.838795 -11.72571 36.873222
-34.187393 -11.478666 38.810143
-35.637867 -8.5908766 37.130665
-34.972446 -8.4125767 39.073952
-33.894901 -9.2668867 41.386299
-34.14819 -10.477793 39.812065
-33.482769 -10.299495 41.755356
-34.841869 -7.540246 40.066647
-34.176453 -7.3619471 42.009937
-33.535988 -11.231621 40.747059
-32.884586 -10.984577 42.683979
-34.30703 -8.2342787 41.017242
-33.641613 -8.0559797 42.960533
-36.19693 -3.3080921 37.838188
-36.585903 -4.7891288 36.328049
-35.895741 -4.7053299 38.266155
-36.847492 -1.6665961 36.418743
-36.159286 -1.6063859 38.360458
-36.189404 -5.1204209 37.313995
-35.499241 -5.036623 39.252106
-36.475292 -1.907439 37.40189
-35.78709 -1.8472281 39.343601
-34.820526 -3.18767 41.721615
-35.205574 -4.621531 40.204266
-34.515411 -4.5377331 42.142372
-35.471085 -1.546175 40.30217
-34.782883 -1.485965 42.243885
-34.809078 -4.9528241 41.190212
-34.118912 -4.8690252 43.128323
-35.098888 -1.787017 41.285316
-34.410686 -1.726807 43.227028
-33.912712 -11.590517 39.413918
-33.48148 -12.396104 39.740715
-32.609909 -11.096429 43.287754
-32.830078 -12.14906 41.677635
-32.178673 -11.902016 43.614552
-33.772194 -8.9283123 41.967842
-33.106777 -8.7500143 43.911129
-35.415138 -4.0338531 39.8218
-34.034805 -3.8662541 43.698017
-33.722416 -5.2003169 44.114269
-34.03849 -1.967649 44.210175
-32.564064 -8.9102898 45.272881
-32.817348 -10.121196 43.698643
-32.178253 -9.8526058 45.636135
-33.511032 -7.1836491 43.953228
-32.845615 -7.0053501 45.896519
-32.233185 -10.737533 44.620895
-31.581779 -10.490487 46.557812
-32.976196 -7.8776822 44.903824
-32.310776 -7.6993828 46.847115
-31.233231 -8.5536928 49.159458
-31.550455 -9.54527 47.571136
-32.177589 -6.8375082 47.839283
-31.48634 -6.7627668 49.777351
-30.930374 -10.243443 48.494732
-30.278975 -9.9963989 50.431648
-31.645361 -7.5210848 48.790405
-30.979942 -7.3427858 50.733692
-33.447479 -3.036072 45.602337
-33.825249 -4.4539342 44.080482
-33.135082 -4.3701339 46.018589
-34.094681 -1.425754 44.185596
-33.406479 -1.365543 46.127308
-33.428749 -4.7852259 45.066429
-32.738583 -4.701426 47.004536
-33.722485 -1.6665961 45.168743
-33.034279 -1.606385 47.110455
-32.06715 -2.868474 49.478554
-32.44492 -4.286335 47.956696
-31.754757 -4.2025361 49.894806
-32.718273 -1.3053319 48.069023
-32.030075 -1.245122 50.010735
-32.04842 -4.6176271 48.942646
-31.358257 -4.5338278 50.880753
-32.346081 -1.546175 49.05217
-31.657877 -1.4859639 50.993881
-31.307102 -10.602341 47.161591
-31.527271 -11.65497 45.551472
-30.87587 -11.407927 47.488388
-32.44136 -8.5717163 45.85442
-31.775942 -8.3934174 47.79771
-30.821358 -12.572409 46.482048
-30.169956 -12.325365 48.418964
-30.004293 -10.108251 51.035423
-30.224464 -11.160882 49.425308
-29.573065 -10.913838 51.362225
-31.110521 -8.2151184 49.741001
-30.445105 -8.0368195 51.684288
-29.518553 -12.078321 50.355881
-28.867151 -11.831277 52.292801
-30.435524 -9.3026619 50.708622
-29.784122 -9.0556183 52.645542
-32.65448 -3.698657 47.574234
-33.032253 -5.116518 46.05238
-32.342087 -5.0327182 47.990486
-33.350288 -1.907438 46.151886
-32.662086 -1.847227 48.093601
-31.274155 -3.531059 51.450451
-31.651922 -4.9489188 49.928593
-30.961758 -4.8651199 51.866703
-31.973883 -1.787017 50.035313
-31.285683 -1.726806 51.977028
-30.565256 -5.1964121 52.85265
-30.913486 -1.967648 52.960175
-31.440161 -2.3067369 51.402431
-26.78771 -16.576523 51.377811
-28.398506 -12.999846 52.359009
-28.710598 -12.525014 52.015827
-27.026758 -12.697161 56.223362
-24.253197 -19.216688 53.009861
-23.683422 -20.57184 52.148006
-24.562109 -18.946722 52.726986
-23.992561 -18.553591 54.667706
-23.114105 -18.430429 56.8913
-23.423016 -18.160461 56.608421
-22.85347 -17.767332 58.549141
-26.859409 -14.756189 54.135429
-27.125383 -15.41006 52.476116
-26.55759 -15.012487 54.415936
-28.026773 -13.306248 52.943573
-27.401983 -13.014904 54.886467
-25.857597 -16.717516 53.288315
-25.28805 -16.324385 55.229034
-27.181604 -14.369351 53.836124
-26.556816 -14.078008 55.779022
-25.723825 -13.961044 58.015068
-25.989796 -14.614913 56.355755
-26.777195 -12.72356 56.829365
-26.123749 -12.497906 58.767235
-24.718504 -15.931255 57.16975
-24.148958 -15.538126 59.11047
-25.93203 -13.786665 57.72192
-25.307245 -13.495323 59.664814
-21.975012 -17.644169 60.772736
-20.835918 -16.857906 64.654175
-24.587086 -13.167566 61.894684
-25.437874 -12.346562 60.699413
-23.579414 -15.144997 61.051189
-23.009869 -14.751867 62.991909
-24.682455 -13.203979 61.607712
-24.087238 -12.851526 63.547867
-23.414349 -12.426079 65.773354
-23.500868 -12.480783 65.487206
-22.914501 -12.11004 67.426537
-29.902397 -8.1970959 53.04604
-29.627573 -9.7493553 52.368568
-28.97617 -9.5023108 54.305485
-30.314526 -7.1644878 52.676983
-29.649109 -6.9861889 54.620274
-28.571562 -7.8404989 56.932621
-28.98369 -6.8078909 56.563564
-30.686825 -2.700876 53.354767
-31.341873 -1.184911 51.95245
-30.668091 -4.4500289 52.818863
-29.977928 -4.36623 54.756969
-30.969673 -1.425753 52.935593
-30.281469 -1.3655421 54.877308
-29.306496 -2.533278 57.230984
-29.287764 -4.2824311 56.695076
-28.597601 -4.1986318 58.633186
-29.593269 -1.3053319 56.819019
-28.905071 -1.245122 58.760735
-28.701488 -9.6141624 54.90926
-28.921659 -10.666794 53.299145
-28.270256 -10.419748 55.236061
-29.779686 -7.858521 53.627579
-29.114269 -7.680223 55.570869
-28.215748 -11.584232 54.229717
-27.564342 -11.337187 56.166637
-29.132723 -8.8085747 54.582462
-28.481318 -8.5615301 56.519379
-27.398684 -9.1200733 58.783096
-27.618851 -10.172704 57.172977
-26.967451 -9.9256601 59.109898
-28.448853 -7.501924 57.51416
-27.783436 -7.323626 59.457451
-26.912939 -11.090142 58.103554
-26.261538 -10.843099 60.040474
-27.829914 -8.3144855 58.456295
-27.178509 -8.06744 60.393215
-29.893824 -3.3634601 55.326664
-30.271591 -4.781321 53.80481
-29.581429 -4.6975222 55.74292
-30.597481 -1.666595 53.918739
-29.909277 -1.606385 55.860455
-29.875093 -5.1126132 54.79076
-29.184929 -5.0288138 56.728867
-30.206215 -2.029398 54.910412
-29.516052 -1.945599 56.848518
-28.513494 -3.1958621 59.202881
-28.891266 -4.6137228 57.681026
-28.201101 -4.5299239 59.619133
-29.222389 -1.530508 57.800678
-28.532225 -1.446709 59.738785
-28.494766 -4.945015 58.666977
-27.804604 -4.8612161 60.605083
-28.825886 -1.861799 58.786625
-28.135723 -1.778001 60.724735
-27.253082 -7.4415112 60.816471
-25.997482 -6.826838 64.686478
-27.926165 -2.36568 61.107201
-28.220549 -1.15354 60.699833
-26.545839 -2.198082 64.983414
-26.095875 -8.6259842 62.656933
-26.31605 -9.6786165 61.046818
-25.664646 -9.431572 62.983734
-27.118017 -7.145328 61.400742
-26.4526 -6.9670291 63.344032
-25.610138 -10.596055 61.97739
-24.958733 -10.34901 63.91431
-26.527109 -7.8203969 62.330132
-25.875708 -7.5733528 64.267052
-24.793074 -8.131897 66.530769
-25.803724 -6.7319851 65.283676
-24.307329 -10.101965 65.851227
-23.655924 -9.8549204 67.788147
-25.224304 -7.3263078 66.203972
-24.572899 -7.0792632 68.140884
-27.133167 -3.028264 63.079098
-27.510939 -4.446125 61.557243
-26.820776 -4.3623261 63.49535
-27.842058 -1.36291 61.676895
-27.151896 -1.279111 63.615002
-27.114437 -4.7774172 62.54319
-26.424273 -4.6936178 64.4813
-27.44556 -1.6942019 62.662842
-26.755396 -1.6104029 64.600952
-25.752842 -2.860666 66.955315
-26.13061 -4.2785268 65.433456
-25.440445 -4.1947279 67.371567
-26.461731 -1.195312 65.553108
-25.771568 -1.111513 67.491219
-25.734106 -4.609818 66.419403
-25.043943 -4.5260201 68.357513
-26.065233 -1.5266041 66.539062
-25.375071 -1.4428051 68.477165
-17.948643 -33.148632 34.152946
-13.061066 -35.131332 35.031368
-13.019019 -35.283073 34.694412
-12.790771 -34.628769 36.63438
-12.522541 -33.859856 38.914169
-12.066046 -32.55125 42.794102
-19.794695 -31.41189 35.902
-21.749928 -30.41106 35.050934
-21.354851 -29.846834 36.994305
-18.55434 -32.594677 34.734921
-18.23094 -31.978483 36.672478
-19.538282 -31.715469 35.61533
-19.206726 -31.108524 37.554626
-19.004541 -30.283434 39.788738
-20.959776 -29.282608 38.937672
-18.90789 -30.47958 39.491829
-18.609051 -29.850636 41.429031
-22.402187 -28.888941 37.513264
-22.988636 -29.191092 35.85041
-22.526844 -28.669838 37.787567
-24.361534 -27.61735 36.594681
-23.899744 -27.096098 38.531837
-20.842028 -30.453995 36.420959
-20.446953 -29.889769 38.364326
-22.145775 -29.19252 37.226589
-21.750698 -28.628294 39.16996
-21.566561 -27.787888 41.395287
-22.065054 -28.148586 39.724724
-21.603264 -27.627335 41.66188
-23.437956 -26.574846 40.468994
-22.976164 -26.053591 42.406147
-20.051876 -29.325541 40.307697
-19.656801 -28.761314 42.251064
-21.355623 -28.064066 41.113327
-20.960548 -27.49984 43.056698
-15.18542 -33.440189 36.817833
-16.11491 -33.644405 35.191757
-15.823199 -33.018829 37.133942
-17.165524 -32.779289 36.076759
-16.842121 -32.163097 38.014313
-13.485462 -34.707119 35.608486
-13.193749 -34.081539 37.550674
-14.54764 -33.861549 36.50172
-14.255927 -33.23597 38.443905
-14.601996 -32.189034 40.702206
-15.531487 -32.39325 39.07613
-15.239776 -31.767672 41.018318
-16.518719 -31.5469 39.951866
-16.195316 -30.930706 41.88942
-12.902039 -33.455963 39.492859
-12.610327 -32.830387 41.435047
-13.964216 -32.61039 40.386093
-13.672504 -31.984814 42.328278
-17.447817 -31.60914 38.596287
-18.303926 -31.82493 36.956593
-17.980524 -31.208736 38.894146
-19.539053 -29.932699 39.734352
-15.609816 -33.015976 37.394951
-15.318105 -32.3904 39.337135
-16.801012 -30.376751 42.471394
-17.657122 -30.592541 40.831699
-17.333719 -29.976347 42.769253
-19.143976 -29.368471 41.677723
-18.748901 -28.804245 43.62109
-15.026392 -31.76482 41.279324
-14.73468 -31.139242 43.221508
-15.944903 -30.160963 44.111092
-18.262989 -29.122299 43.672363
-18.310213 -29.221687 43.366238
-17.665314 -27.864408 47.546768
-20.642981 -26.745384 45.2696
-21.141472 -27.106079 43.599033
-20.679684 -26.584827 45.53619
-22.514374 -25.532339 44.343304
-22.052584 -25.011087 46.28046
-19.261726 -28.197088 44.194435
-18.866652 -27.632862 46.137802
-20.565474 -26.935614 45.000065
-20.144485 -26.384682 46.940163
-19.719397 -25.702875 49.143909
-21.590792 -24.489834 48.217617
-21.129002 -23.968582 50.154774
-18.471573 -27.068632 48.081173
-18.0765 -26.504408 50.024544
-19.682692 -25.863428 48.877319
-19.220903 -25.342176 50.814476
-14.018572 -30.937876 44.586578
-15.871913 -30.31451 43.826973
-15.548512 -29.698317 45.764526
-12.318614 -32.204803 43.377232
-13.380792 -31.359234 44.270466
-13.089081 -30.733656 46.212654
-13.435148 -29.686718 48.470951
-15.225107 -29.082121 47.702076
-12.797368 -30.108076 48.154839
-12.505656 -29.482498 50.097027
-16.154207 -29.144361 46.3465
-17.010317 -29.360149 44.706806
-16.686914 -28.743958 46.64436
-18.353827 -28.240019 45.564461
-17.958752 -27.675793 47.507828
-14.442967 -30.513662 45.163696
-14.159695 -29.882936 47.106361
-15.6215 -29.544765 46.048641
-15.298099 -28.928574 47.986195
-15.507402 -27.911972 50.221607
-16.363512 -28.12776 48.581909
-16.040108 -27.511564 50.519463
-17.563675 -27.111565 49.451199
-17.168598 -26.547335 51.394566
-13.836291 -29.266741 49.043915
-13.51289 -28.650547 50.981468
-14.974695 -28.312376 49.923748
-14.651294 -27.696184 51.861301
-8.2882414 -36.220573 35.561153
-10.107068 -35.968788 34.950752
-9.928093 -35.300842 36.891914
-7.2097721 -36.622643 35.191757
-7.0435991 -35.948456 37.130577
-7.955894 -34.872196 39.438797
-9.7491159 -34.632896 38.833073
-6.8774261 -35.274269 39.069401
-6.7112532 -34.600079 41.008221
-2.323833 -37.719101 33.92762
-2.805618 -36.979111 35.887951
-4.50805 -37.016838 35.363567
