# .PCD v0.7 - Point Cloud Data file format
VERSION 0.7
FIELDS x y z
SIZE 4 4 4
TYPE F F F
COUNT 1 1 1
WIDTH 1778
HEIGHT 1
VIEWPOINT 0 0 0 1 0 0 0
POINTS 1778
DATA ascii
-12.1875 14.0625 0
-12.1875 14.0625 0
-9.375 9.375 0
-10.3125 8.4375 0
-10.3125 10.3125 0
-8.4375 8.4375 0
-8.4375 10.3125 0
-9.375 9.375 0
-10.3125 8.4375 0
-7.4403529 6.518393 3.59375
-10.3125 10.3125 0
-10.3125 10.3125 0
-8.4375 8.4375 0
-7.0710678 7.0710678 3.59375
-8.4375 10.3125 0
-6.518393 7.4403529 3.59375
-9.375 13.125 0
-10.3125 12.1875 0
-10.3125 14.0625 0
-8.4375 12.1875 0
-8.4375 14.0625 0
-9.375 13.125 0
-10.3125 12.1875 0
-10.3125 12.1875 0
-10.3125 14.0625 0
-10.3125 14.0625 0
-8.4375 12.1875 0
-8.4375 12.1875 0
-8.4375 14.0625 0
-8.4375 14.0625 0
-9.474721 2.6407571 0
-9.689785 1.559556 0
-8.8812962 4.3618689 0
-9.474721 2.6407571 2.1875
-9.689785 1.559556 0.78125
-9.689785 1.559556 3.59375
-8.8812962 4.3618698 0.78125
-8.8812962 4.3618698 3.59375
-7.2927232 6.739337 0
-8.0151587 5.6581349 0
-6.954401 7.1490221 0
-5.6581349 8.0151587 0
-7.2927232 6.739337 2.1875
-8.0151587 5.6581349 0.78125
-8.0151587 5.6581349 3.59375
-7.1490221 6.954401 0.78125
-7.1490221 6.954401 3.59375
-7.4364238 6.524272 0.78125
-7.4364238 6.524272 3.59375
-5.6581359 8.0151596 0.78125
-5.6581359 8.0151596 3.59375
-7.8675289 5.8790798 2.1875
-2.6407571 9.474721 0
-4.3618689 8.8812962 0
-1.559556 9.689785 0
-2.6407571 9.474721 2.1875
-4.3618698 8.8812962 0.78125
-4.3618698 8.8812962 3.59375
-1.559556 9.689785 0.78125
-1.559556 9.689785 3.59375
-5.625 9.375 0
-6.5625 8.4375 0
-6.5625 10.3125 0
-4.7919979 8.5938931 0
-4.6875 10.3125 0
-5.0070629 8.4501925 2.1875
-6.5625 8.4375 0
-6.088264 7.727757 3.59375
-6.5625 10.3125 0
-5.222127 8.3064899 3.59375
-4.7919989 8.593894 0.78125
-4.7919989 8.593894 3.59375
-4.6875 10.3125 0
-3.9258609 9.1726255 3.59375
-5.625 13.125 0
-6.5625 12.1875 0
-6.5625 14.0625 0
-4.6875 12.1875 0
-4.6875 14.0625 0
-5.625 13.125 0
-6.5625 12.1875 0
-6.5625 12.1875 0
-6.5625 14.0625 0
-6.5625 14.0625 0
-4.6875 12.1875 0
-3.826834 9.2387953 3.59375
-4.6875 14.0625 0
-4.6875 14.0625 0
-1.923226 9.6174469 0
-3.004427 9.4023819 0
-2.8125 10.3125 0
-1.20079 9.7611485 0
-0.9375 10.3125 0
-1.923226 9.6174459 2.1875
-3.004427 9.4023819 0.78125
-3.004427 9.4023819 3.59375
-2.8125 10.3125 0
-2.6456611 9.4737444 3.59375
-1.20079 9.7611465 0.78125
-1.20079 9.7611465 3.59375
-0.84202403 9.83251 0.78125
-0.84202403 9.83251 3.59375
-1.875 13.125 0
-2.8125 12.1875 0
-2.8125 14.0625 0
-0.9375 12.1875 0
-0.9375 14.0625 0
-1.875 13.125 0
-2.8125 12.1875 0
-2.286896 9.5451078 3.59375
-2.8125 14.0625 0
-2.8125 14.0625 0
-0.9375 12.1875 0
-0.48325801 9.9038734 3.59375
-0.9375 14.0625 0
-0.9375 14.0625 0
-13.125 16.875 -40
-14.0625 15.9375 -40
-14.0625 17.8125 -40
-12.1875 15.9375 -40
-12.1875 17.8125 -40
-13.125 20.625 -40
-14.0625 19.6875 -40
-14.0625 21.5625 -40
-12.1875 19.6875 -40
-12.1875 21.5625 -40
-15.979227 25.167465 -31.5625
-9.375 16.875 -40
-10.3125 15.9375 -40
-10.3125 17.8125 -40
-8.4375 15.9375 -40
-8.4375 17.8125 -40
-9.375 20.625 -40
-10.3125 19.6875 -40
-10.3125 21.5625 -40
-8.4375 19.6875 -40
-8.4375 21.5625 -40
-11.768668 27.46571 -31.5625
-15.979227 25.167465 -25.9375
-15.979227 25.167465 -20.3125
-11.768668 27.46571 -25.9375
-11.768668 27.46571 -20.3125
-14.289909 26.228937 -37.1875
-14.0625 23.4375 -40
-15.38437 25.541239 -35.78125
-14.539711 26.071976 -38.59375
-14.539711 26.071976 -35.78125
-12.1875 23.4375 -40
-14.040106 26.385899 -35.78125
-12.1875 25.3125 -40
-12.813064 27.100258 -35.78125
-14.289909 26.228937 -31.5625
-15.38437 25.541239 -32.96875
-15.38437 25.541239 -30.15625
-14.539711 26.071976 -32.96875
-14.539711 26.071976 -30.15625
-14.040106 26.385899 -32.96875
-14.040107 26.3859 -30.15625
-12.813064 27.100258 -32.96875
-12.813064 27.100258 -30.15625
-12.771515 27.114798 -37.1875
-13.695052 26.602711 -38.59375
-13.695052 26.602711 -35.78125
-13.01651 27.02907 -38.59375
-13.01651 27.02907 -35.78125
-12.228542 27.304792 -38.59375
-12.228542 27.304792 -35.78125
-11.64402 27.509323 -38.59375
-11.64402 27.509323 -35.78125
-12.771515 27.114798 -31.5625
-13.695053 26.602713 -32.96875
-13.695053 26.602713 -30.15625
-13.01651 27.02907 -32.96875
-13.01651 27.02907 -30.15625
-12.228542 27.304792 -32.96875
-12.228542 27.304792 -30.15625
-11.64402 27.509323 -32.96875
-11.64402 27.509323 -30.15625
-9.375 24.375 -40
-10.3125 23.4375 -40
-10.3125 25.3125 -40
-11.142597 27.68478 -35.78125
-8.4375 23.4375 -40
-8.4375 25.3125 -40
-9.4721298 28.269302 -35.78125
-10.599624 27.874773 -31.5625
-11.142597 27.68478 -32.96875
-11.142597 27.68478 -30.15625
-9.4721298 28.269302 -32.96875
-9.4721298 28.269302 -30.15625
-9.4305801 28.28384 -37.1875
-10.558075 27.889313 -38.59375
-10.558075 27.889313 -35.78125
-9.9735537 28.093845 -38.59375
-9.9735537 28.093845 -35.78125
-8.8876085 28.473835 -38.59375
-8.8876085 28.473835 -35.78125
-8.3030863 28.67837 -38.59375
-8.3030863 28.67837 -35.78125
-9.4305801 28.28384 -31.5625
-10.558075 27.889313 -32.96875
-10.558075 27.889313 -30.15625
-9.9735537 28.093845 -32.96875
-9.9735537 28.093845 -30.15625
-8.8876085 28.473835 -32.96875
-8.8876085 28.473835 -30.15625
-8.3030863 28.67837 -32.96875
-8.3030863 28.67837 -30.15625
-14.28991 26.228939 -25.9375
-15.38437 25.541239 -27.34375
-15.38437 25.541239 -24.53125
-14.539712 26.071976 -27.34375
-14.539712 26.071976 -24.53125
-14.040107 26.3859 -27.34375
-14.040107 26.3859 -24.53125
-12.813064 27.100258 -27.34375
-12.813064 27.100258 -24.53125
-14.28991 26.228939 -20.3125
-15.384371 25.541241 -21.71875
-15.384371 25.541241 -18.90625
-14.539712 26.071976 -21.71875
-14.539712 26.071976 -18.90625
-14.040107 26.3859 -21.71875
-14.040107 26.3859 -18.90625
-12.813064 27.100258 -21.71875
-12.813064 27.100258 -18.90625
-12.771515 27.114798 -25.9375
-13.695053 26.602713 -27.34375
-13.695053 26.602713 -24.53125
-13.01651 27.02907 -27.34375
-13.01651 27.02907 -24.53125
-12.228542 27.304792 -27.34375
-12.228542 27.304792 -24.53125
-11.64402 27.509323 -27.34375
-11.64402 27.509323 -24.53125
-12.771515 27.114798 -20.3125
-13.695053 26.602713 -21.71875
-13.695053 26.602713 -18.90625
-13.01651 27.02907 -21.71875
-13.01651 27.02907 -18.90625
-12.228542 27.304792 -21.71875
-12.228542 27.304792 -18.90625
-11.64402 27.509323 -21.71875
-11.64402 27.509323 -18.90625
-10.599624 27.874773 -25.9375
-11.142597 27.68478 -27.34375
-11.142597 27.68478 -24.53125
-9.4721298 28.269302 -27.34375
-9.4721298 28.269302 -24.53125
-10.599624 27.874773 -20.3125
-11.142597 27.68478 -21.71875
-11.142597 27.68478 -18.90625
-9.4721298 28.269302 -21.71875
-9.4721298 28.269302 -18.90625
-9.4305801 28.28384 -25.9375
-10.558075 27.889313 -27.34375
-10.558075 27.889313 -24.53125
-9.9735537 28.093845 -27.34375
-9.9735537 28.093845 -24.53125
-8.8876085 28.473835 -27.34375
-8.8876085 28.473835 -24.53125
-8.3030863 28.67837 -27.34375
-8.3030863 28.67837 -24.53125
-9.4305801 28.28384 -20.3125
-10.558075 27.889313 -21.71875
-10.558075 27.889313 -18.90625
-9.9735537 28.093845 -21.71875
-9.9735537 28.093845 -18.90625
-8.8876085 28.473835 -21.71875
-8.8876085 28.473835 -18.90625
-8.3030863 28.67837 -21.71875
-8.3030863 28.67837 -18.90625
-5.625 16.875 -40
-6.5625 15.9375 -40
-6.5625 17.8125 -40
-4.6875 15.9375 -40
-4.6875 17.8125 -40
-5.625 20.625 -40
-6.5625 19.6875 -40
-6.5625 21.5625 -40
-4.6875 19.6875 -40
-4.6875 21.5625 -40
-1.875 16.875 -40
-2.8125 15.9375 -40
-2.8125 17.8125 -40
-0.9375 15.9375 -40
-0.9375 17.8125 -40
-1.875 20.625 -40
-2.8125 19.6875 -40
-2.8125 21.5625 -40
-0.9375 19.6875 -40
-0.9375 21.5625 -40
-5.625 24.375 -40
-6.5625 23.4375 -40
-6.5625 25.3125 -40
-7.8016629 28.853823 -35.78125
-4.6875 23.4375 -40
-4.6875 25.3125 -40
-7.2586899 29.043818 -31.5625
-7.8016629 28.853823 -32.96875
-7.8016629 28.853823 -30.15625
-5.7630978 29.35066 -37.1875
-6.5625 27.1875 -40
-7.2171412 29.058357 -35.78125
-6.5845389 29.258104 -38.59375
-6.5845389 29.258104 -35.78125
-4.6875 27.1875 -40
-4.9416571 29.443213 -35.78125
-4.7330441 29.466717 -38.59375
-4.7330441 29.466717 -35.78125
-5.7630978 29.35066 -31.5625
-7.2171412 29.058357 -32.96875
-7.2171412 29.058357 -30.15625
-6.5845389 29.258104 -32.96875
-6.5845389 29.258104 -30.15625
-4.9416571 29.443213 -32.96875
-4.9416571 29.443213 -30.15625
-4.7330441 29.466717 -32.96875
-4.7330441 29.466717 -30.15625
-1.875 24.375 -40
-2.8125 23.4375 -40
-2.8125 25.3125 -40
-0.9375 23.4375 -40
-0.9375 25.3125 -40
-2.4773331 29.720875 -31.5625
-2.0601079 29.767885 -37.1875
-2.8125 27.1875 -40
-3.0901611 29.651825 -35.78125
-2.8815489 29.675329 -38.59375
-2.8815489 29.675329 -35.78125
-0.9375 27.1875 -40
-1.2386661 29.860437 -35.78125
-1.030054 29.883942 -38.59375
-1.030054 29.883942 -35.78125
-2.0601079 29.767885 -31.5625
-3.0901611 29.651825 -32.96875
-3.0901611 29.651825 -30.15625
-2.8815489 29.675329 -32.96875
-2.8815489 29.675329 -30.15625
-1.2386661 29.860437 -32.96875
-1.2386661 29.860435 -30.15625
-1.030054 29.88394 -32.96875
-1.030054 29.88394 -30.15625
-7.2586899 29.043818 -25.9375
-7.8016629 28.853823 -27.34375
-7.8016629 28.853823 -24.53125
-7.2586899 29.043818 -20.3125
-7.8016629 28.853823 -21.71875
-7.8016629 28.853823 -18.90625
-5.7630978 29.35066 -25.9375
-7.2171412 29.058357 -27.34375
-7.2171412 29.058357 -24.53125
-6.5845389 29.258104 -27.34375
-6.5845389 29.258104 -24.53125
-4.9416571 29.443213 -27.34375
-4.9416571 29.443213 -24.53125
-4.7330441 29.466717 -27.34375
-4.7330441 29.466717 -24.53125
-5.7630978 29.35066 -20.3125
-7.2171412 29.058357 -21.71875
-7.2171412 29.058357 -18.90625
-6.5845389 29.258104 -21.71875
-6.5845389 29.258104 -18.90625
-4.9416571 29.443213 -21.71875
-4.9416571 29.443213 -18.90625
-4.7330441 29.466717 -21.71875
-4.7330441 29.466717 -18.90625
-2.4773331 29.720875 -25.9375
-2.4773331 29.720875 -20.3125
-2.0601079 29.767883 -25.9375
-3.0901611 29.651825 -27.34375
-3.0901611 29.651825 -24.53125
-2.8815489 29.675329 -27.34375
-2.8815489 29.675329 -24.53125
-1.2386661 29.860435 -27.34375
-1.2386661 29.860435 -24.53125
-1.030054 29.88394 -27.34375
-1.030054 29.88394 -24.53125
-2.0601079 29.767883 -20.3125
-3.0901611 29.651825 -21.71875
-3.0901611 29.651823 -18.90625
-2.8815489 29.675327 -21.71875
-2.8815489 29.675327 -18.90625
-1.2386661 29.860435 -21.71875
-1.2386661 29.860435 -18.90625
-1.030054 29.88394 -21.71875
-1.030054 29.88394 -18.90625
-15.979228 25.167467 -14.6875
-15.979228 25.167467 -9.0625
-11.768668 27.46571 -14.6875
-11.768668 27.46571 -9.0625
-13.125 16.875 0
-14.0625 15.9375 0
-14.0625 17.8125 0
-12.1875 15.9375 0
-12.1875 17.8125 0
-13.125 16.875 0
-14.0625 15.9375 0
-14.0625 15.9375 0
-14.0625 17.8125 0
-14.0625 17.8125 0
-12.1875 15.9375 0
-12.1875 15.9375 0
-12.1875 17.8125 0
-12.1875 17.8125 0
-13.125 20.625 0
-14.0625 19.6875 0
-14.0625 21.5625 0
-12.1875 19.6875 0
-12.1875 21.5625 0
-13.125 20.625 0
-14.0625 19.6875 0
-14.0625 19.6875 0
-14.0625 21.5625 0
-14.0625 21.5625 0
-12.1875 19.6875 0
-12.1875 19.6875 0
-12.1875 21.5625 0
-12.1875 21.5625 0
-9.375 16.875 0
-10.3125 15.9375 0
-10.3125 17.8125 0
-8.4375 15.9375 0
-8.4375 17.8125 0
-9.375 16.875 0
-10.3125 15.9375 0
-10.3125 15.9375 0
-10.3125 17.8125 0
-10.3125 17.8125 0
-8.4375 15.9375 0
-8.4375 15.9375 0
-8.4375 17.8125 0
-8.4375 17.8125 0
-9.375 20.625 0
-10.3125 19.6875 0
-10.3125 21.5625 0
-8.4375 19.6875 0
-8.4375 21.5625 0
-9.375 20.625 0
-10.3125 19.6875 0
-10.3125 19.6875 0
-10.3125 21.5625 0
-10.3125 21.5625 0
-8.4375 19.6875 0
-8.4375 19.6875 0
-8.4375 21.5625 0
-8.4375 21.5625 0
-14.28991 26.228939 -14.6875
-15.384371 25.541241 -16.09375
-15.384371 25.541241 -13.28125
-14.539712 26.071976 -16.09375
-14.539712 26.071976 -13.28125
-14.040107 26.3859 -16.09375
-14.040107 26.3859 -13.28125
-12.813064 27.100258 -16.09375
-12.813064 27.100258 -13.28125
-14.28991 26.228939 -9.0625
-15.384371 25.541241 -10.46875
-15.384371 25.541241 -7.65625
-14.539712 26.071976 -10.46875
-14.539712 26.071976 -7.65625
-14.040107 26.3859 -10.46875
-14.040107 26.3859 -7.65625
-12.813064 27.100258 -10.46875
-12.813064 27.100258 -7.65625
-12.771515 27.114798 -14.6875
-13.695053 26.602713 -16.09375
-13.695053 26.602713 -13.28125
-13.01651 27.02907 -16.09375
-13.01651 27.02907 -13.28125
-12.228542 27.304792 -16.09375
-12.228542 27.304792 -13.28125
-11.64402 27.509323 -16.09375
-11.64402 27.509323 -13.28125
-12.771515 27.114798 -9.0625
-13.695053 26.602713 -10.46875
-13.695053 26.602713 -7.65625
-13.01651 27.02907 -10.46875
-13.01651 27.02907 -7.65625
-12.228542 27.304792 -10.46875
-12.228542 27.304792 -7.65625
-11.64402 27.509323 -10.46875
-11.64402 27.509323 -7.65625
-10.599624 27.874773 -14.6875
-11.142597 27.68478 -16.09375
-11.142597 27.68478 -13.28125
-9.4721298 28.269302 -16.09375
-9.4721298 28.269302 -13.28125
-10.599624 27.874773 -9.0625
-11.142597 27.68478 -10.46875
-11.142597 27.68478 -7.65625
-9.4721298 28.269302 -10.46875
-9.4721298 28.269302 -7.65625
-9.4305801 28.28384 -14.6875
-10.558075 27.889313 -16.09375
-10.558075 27.889313 -13.28125
-9.9735537 28.093845 -16.09375
-9.9735537 28.093845 -13.28125
-8.8876085 28.473835 -16.09375
-8.8876085 28.473835 -13.28125
-8.3030863 28.67837 -16.09375
-8.3030863 28.67837 -13.28125
-9.4305801 28.28384 -9.0625
-10.558075 27.889313 -10.46875
-10.558075 27.889313 -7.65625
-9.9735537 28.093845 -10.46875
-9.9735537 28.093845 -7.65625
-8.8876085 28.473835 -10.46875
-8.8876085 28.473835 -7.65625
-8.3030863 28.67837 -10.46875
-8.3030863 28.67837 -7.65625
-14.28991 26.228939 -3.4375
-15.384371 25.541241 -4.84375
-14.0625 23.4375 0
-14.539712 26.071976 -4.84375
-14.539712 26.071976 -2.03125
-14.040107 26.3859 -4.84375
-12.1875 23.4375 0
-12.813064 27.100258 -4.84375
-12.813064 27.100258 -2.03125
-13.125 24.375 0
-14.0625 23.4375 0
-14.0625 23.4375 0
-14.0625 25.3125 0
-14.0625 25.3125 0
-12.1875 23.4375 0
-12.1875 23.4375 0
-12.1875 25.3125 0
-12.1875 25.3125 0
-12.771515 27.114798 -3.4375
-13.695053 26.602713 -4.84375
-13.695053 26.602713 -2.03125
-13.01651 27.02907 -4.84375
-13.01651 27.02907 -2.03125
-12.228542 27.304792 -4.84375
-12.228542 27.304792 -2.03125
-11.64402 27.509323 -4.84375
-11.64402 27.509323 -2.03125
-12.771515 27.114798 0
-13.695053 26.602713 0
-13.695053 26.602713 0
-13.01651 27.02907 0
-12.1875 27.1875 0
-12.1875 27.1875 0
-11.64402 27.509325 0
-9.375 24.375 0
-10.3125 23.4375 0
-11.142597 27.68478 -4.84375
-10.3125 25.3125 0
-8.4375 23.4375 0
-9.4721298 28.269302 -4.84375
-8.4375 25.3125 0
-9.375 24.375 0
-10.3125 23.4375 0
-10.3125 23.4375 0
-10.3125 25.3125 0
-10.3125 25.3125 0
-8.4375 23.4375 0
-8.4375 23.4375 0
-8.4375 25.3125 0
-8.4375 25.3125 0
-9.4305801 28.28384 -3.4375
-10.558075 27.889313 -4.84375
-10.558075 27.889313 -2.03125
-9.9735537 28.093845 -4.84375
-9.9735537 28.093845 -2.03125
-8.8876085 28.473835 -4.84375
-8.8876085 28.473835 -2.03125
-8.3030863 28.67837 -4.84375
-8.3030863 28.67837 -2.03125
-9.375 28.125 0
-10.3125 27.1875 0
-10.3125 27.1875 0
-9.9735537 28.093847 0
-9.9735537 28.093847 0
-8.4375 27.1875 0
-8.4375 27.1875 0
-8.3030863 28.678368 0
-8.3030863 28.678368 0
-5.625 16.875 0
-6.5625 15.9375 0
-6.5625 17.8125 0
-4.6875 15.9375 0
-4.6875 17.8125 0
-5.625 16.875 0
-6.5625 15.9375 0
-6.5625 15.9375 0
-6.5625 17.8125 0
-6.5625 17.8125 0
-4.6875 15.9375 0
-4.6875 15.9375 0
-4.6875 17.8125 0
-4.6875 17.8125 0
-5.625 20.625 0
-6.5625 19.6875 0
-6.5625 21.5625 0
-4.6875 19.6875 0
-4.6875 21.5625 0
-5.625 20.625 0
-6.5625 19.6875 0
-6.5625 19.6875 0
-6.5625 21.5625 0
-6.5625 21.5625 0
-4.6875 19.6875 0
-4.6875 19.6875 0
-4.6875 21.5625 0
-4.6875 21.5625 0
-1.875 16.875 0
-2.8125 15.9375 0
-2.8125 17.8125 0
-0.9375 15.9375 0
-0.9375 17.8125 0
-1.875 16.875 0
-2.8125 15.9375 0
-2.8125 15.9375 0
-2.8125 17.8125 0
-2.8125 17.8125 0
-0.9375 15.9375 0
-0.9375 15.9375 0
-0.9375 17.8125 0
-0.9375 17.8125 0
-1.875 20.625 0
-2.8125 19.6875 0
-2.8125 21.5625 0
-0.9375 19.6875 0
-0.9375 21.5625 0
-1.875 20.625 0
-2.8125 19.6875 0
-2.8125 19.6875 0
-2.8125 21.5625 0
-2.8125 21.5625 0
-0.9375 19.6875 0
-0.9375 19.6875 0
-0.9375 21.5625 0
-0.9375 21.5625 0
-7.2586899 29.043818 -14.6875
-7.8016629 28.853823 -16.09375
-7.8016629 28.853823 -13.28125
-7.2586899 29.043818 -9.0625
-7.8016629 28.853823 -10.46875
-7.8016629 28.853823 -7.65625
-5.7630978 29.35066 -14.6875
-7.2171412 29.058357 -16.09375
-7.2171412 29.058357 -13.28125
-6.5845389 29.258104 -16.09375
-6.5845389 29.258104 -13.28125
-4.9416571 29.443213 -16.09375
-4.9416571 29.443213 -13.28125
-4.7330441 29.466717 -16.09375
-4.7330441 29.466717 -13.28125
-5.7630978 29.35066 -9.0625
-7.2171412 29.058357 -10.46875
-7.2171412 29.058357 -7.65625
-6.5845389 29.258104 -10.46875
-6.5845389 29.258104 -7.65625
-4.9416571 29.443213 -10.46875
-4.9416561 29.443211 -7.65625
-4.7330441 29.466715 -10.46875
-4.7330441 29.466715 -7.65625
-2.4773331 29.720875 -14.6875
-2.4773331 29.720875 -9.0625
-2.0601079 29.767883 -14.6875
-3.0901611 29.651823 -16.09375
-3.0901611 29.651823 -13.28125
-2.8815489 29.675327 -16.09375
-2.8815489 29.675327 -13.28125
-1.2386661 29.860435 -16.09375
-1.2386661 29.860435 -13.28125
-1.030054 29.88394 -16.09375
-1.030054 29.88394 -13.28125
-2.0601079 29.767883 -9.0625
-3.0901611 29.651823 -10.46875
-3.0901611 29.651823 -7.65625
-2.8815489 29.675327 -10.46875
-2.8815489 29.675327 -7.65625
-1.2386661 29.860435 -10.46875
-1.2386661 29.860435 -7.65625
-1.030054 29.88394 -10.46875
-1.030054 29.88394 -7.65625
-5.625 24.375 0
-6.5625 23.4375 0
-7.8016629 28.853823 -4.84375
-6.5625 25.3125 0
-4.6875 23.4375 0
-4.6875 25.3125 0
-5.625 24.375 0
-6.5625 23.4375 0
-6.5625 23.4375 0
-6.5625 25.3125 0
-6.5625 25.3125 0
-4.6875 23.4375 0
-4.6875 23.4375 0
-4.6875 25.3125 0
-4.6875 25.3125 0
-5.7630978 29.350658 -3.4375
-7.2171412 29.058357 -4.84375
-7.2171412 29.058357 -2.03125
-6.5845389 29.258104 -4.84375
-6.5845389 29.258104 -2.03125
-4.9416561 29.443211 -4.84375
-4.6875 27.1875 0
-4.7330441 29.466715 -4.84375
-4.7330441 29.466715 -2.03125
-5.625 28.125 0
-6.5625 27.1875 0
-6.5625 27.1875 0
-6.5625 29.0625 0
-6.5625 29.0625 0
-4.6875 27.1875 0
-4.6875 27.1875 0
-4.6875 29.0625 0
-4.6875 29.0625 0
-1.875 24.375 0
-2.8125 23.4375 0
-2.8125 25.3125 0
-0.9375 23.4375 0
-0.9375 25.3125 0
-1.875 24.375 0
-2.8125 23.4375 0
-2.8125 23.4375 0
-2.8125 25.3125 0
-2.8125 25.3125 0
-0.9375 23.4375 0
-0.9375 23.4375 0
-0.9375 25.3125 0
-0.9375 25.3125 0
-2.0601079 29.767883 -3.4375
-3.0901611 29.651823 -4.84375
-2.8125 27.1875 0
-2.8815489 29.675327 -4.84375
-2.8815489 29.675327 -2.03125
-1.2386661 29.860435 -4.84375
-0.9375 27.1875 0
-1.030054 29.88394 -4.84375
-1.030054 29.88394 -2.03125
-1.875 28.125 0
-2.8125 27.1875 0
-2.8125 27.1875 0
-2.8125 29.0625 0
-2.8125 29.0625 0
-0.9375 27.1875 0
-0.9375 27.1875 0
-0.9375 29.0625 0
-0.9375 29.0625 0
-9.9028969 0.48816201 7.8125
-9.9028969 0.48816201 13.4375
-9.9028969 0.48816201 19.0625
-9.9028969 0.48816201 24.6875
-9.9028969 0.48816201 30.3125
-9.9028969 0.48816201 35.9375
-9.9028969 0.48816201 41.5625
-9.9028969 0.48816201 47.1875
-9.7601719 1.205694 7.8125
-9.9038734 0.48325801 6.40625
-9.9038734 0.48325801 9.21875
-9.5451078 2.286896 6.40625
-9.5451078 2.286896 9.21875
-9.7601719 1.205694 13.4375
-9.9038734 0.48325801 12.03125
-9.9038734 0.48325801 14.84375
-9.5451078 2.286896 12.03125
-9.5451078 2.286896 14.84375
-9.2387953 3.826834 7.8125
-9.2387953 3.826834 6.40625
-9.2387953 3.826834 9.21875
-9.2387953 3.826834 13.437501
-9.2387953 3.826834 12.03125
-9.2387953 3.826834 14.84375
-9.6174459 1.923226 7.8125
-9.83251 0.84202403 6.40625
-9.83251 0.84202403 9.21875
-9.4737444 2.6456611 6.40625
-9.4737444 2.6456611 9.21875
-9.7611465 1.20079 6.40625
-9.7611465 1.20079 9.21875
-9.4023819 3.004427 6.40625
-9.4023819 3.004427 9.21875
-9.6174459 1.923226 13.4375
-9.83251 0.84202403 12.03125
-9.83251 0.84202403 14.84375
-9.4737444 2.6456611 12.03125
-9.4737444 2.6456611 14.84375
-9.7611465 1.20079 12.03125
-9.7611465 1.20079 14.84375
-9.4023819 3.004427 12.03125
-9.4023819 3.004427 14.84375
-8.4501905 5.007062 7.8125
-9.1726255 3.9258609 6.40625
-9.1726255 3.9258609 9.21875
-8.3064899 5.222127 6.40625
-8.3064899 5.222127 9.21875
-8.5938931 4.7919979 6.40625
-8.5938931 4.7919979 9.21875
-7.727756 6.088264 6.40625
-7.727756 6.088264 9.21875
-8.4501905 5.007062 13.4375
-9.1726255 3.9258609 12.03125
-9.1726255 3.9258609 14.84375
-8.3064899 5.222127 12.03125
-8.3064899 5.222127 14.84375
-8.5938931 4.7919979 12.03125
-8.5938931 4.7919979 14.84375
-7.727756 6.088264 12.03125
-7.727756 6.088264 14.84375
-9.7601719 1.205694 19.0625
-9.9038734 0.48325801 17.65625
-9.9038734 0.48325801 20.46875
-9.5451078 2.286896 17.65625
-9.5451078 2.286896 20.46875
-9.7601719 1.205694 24.6875
-9.9038734 0.48325801 23.28125
-9.9038734 0.48325801 26.09375
-9.5451078 2.286896 23.28125
-9.5451078 2.286896 26.09375
-9.2387953 3.826834 19.0625
-9.2387953 3.826834 17.65625
-9.2387953 3.826834 20.46875
-9.2387953 3.826834 24.687498
-9.2387953 3.826834 23.28125
-9.2387953 3.826834 26.09375
-9.6174459 1.923226 19.0625
-9.83251 0.84202403 17.65625
-9.83251 0.84202403 20.46875
-9.4737444 2.6456611 17.65625
-9.4737444 2.6456611 20.46875
-9.7611465 1.20079 17.65625
-9.7611465 1.20079 20.46875
-9.4023819 3.004427 17.65625
-9.4023819 3.004427 20.46875
-9.6174459 1.923226 24.6875
-9.83251 0.84202403 23.28125
-9.83251 0.84202403 26.09375
-9.4737444 2.6456611 23.28125
-9.4737444 2.6456611 26.09375
-9.7611465 1.20079 23.28125
-9.7611465 1.20079 26.09375
-9.4023819 3.004427 23.28125
-9.4023819 3.004427 26.09375
-8.4501905 5.007062 19.0625
-9.1726255 3.9258609 17.65625
-9.1726255 3.9258609 20.46875
-8.3064899 5.222127 17.65625
-8.3064899 5.222127 20.46875
-8.5938931 4.7919979 17.65625
-8.5938931 4.7919979 20.46875
-7.727757 6.088264 17.65625
-7.727757 6.088264 20.46875
-8.4501905 5.007062 24.6875
-9.1726255 3.9258609 23.28125
-9.1726255 3.9258609 26.09375
-8.3064899 5.222127 23.28125
-8.3064899 5.222127 26.09375
-8.5938931 4.7919979 23.28125
-8.5938931 4.7919979 26.09375
-7.727757 6.088264 23.28125
-7.727757 6.088264 26.09375
-7.8753862 5.8673201 7.8125
-7.8753862 5.8673201 13.4375
-7.0710678 7.0710678 7.8125
-7.4403529 6.518393 6.40625
-7.4403529 6.518393 9.21875
-7.0710678 7.0710678 6.40625
-7.0710678 7.0710678 9.21875
-6.518393 7.4403529 6.40625
-6.518393 7.4403529 9.21875
-7.0710678 7.0710678 13.437501
-7.4403529 6.518393 12.03125
-7.4403529 6.518393 14.84375
-7.0710678 7.0710678 12.03125
-7.0710678 7.0710678 14.84375
-6.518393 7.4403529 12.03125
-6.518393 7.4403529 14.84375
-5.867321 7.8753872 7.8125
-5.867321 7.8753872 13.4375
-7.8753872 5.867321 19.0625
-7.8753872 5.867321 24.6875
-7.0710678 7.0710678 19.0625
-7.4403529 6.518393 17.65625
-7.4403529 6.518393 20.46875
-7.0710678 7.0710678 17.65625
-7.0710678 7.0710678 20.46875
-6.518393 7.4403529 17.65625
-6.518393 7.4403529 20.46875
-7.0710678 7.0710678 24.6875
-7.4403529 6.518393 23.28125
-7.4403529 6.518393 26.09375
-7.0710678 7.0710678 23.28125
-7.0710678 7.0710678 26.093752
-6.518393 7.4403529 23.28125
-6.518393 7.4403529 26.09375
-5.867321 7.8753872 19.0625
-5.867321 7.8753872 24.6875
-9.474721 2.6407571 7.8125
-9.689785 1.559556 6.40625
-9.689785 1.559556 9.21875
-8.8812962 4.3618698 6.40625
-8.8812962 4.3618698 9.21875
-9.474721 2.6407571 13.4375
-9.689785 1.559556 12.03125
-9.689785 1.559556 14.84375
-8.8812962 4.3618698 12.03125
-8.8812962 4.3618698 14.84375
-7.2927241 6.739337 7.8125
-8.0151587 5.6581349 6.40625
-8.0151587 5.6581349 9.21875
-7.1490221 6.954401 6.40625
-7.1490221 6.954401 9.21875
-7.4364238 6.524272 6.40625
-7.4364252 6.5242729 9.21875
-5.6581359 8.0151596 6.40625
-5.6581359 8.0151596 9.21875
-7.2927241 6.739337 13.4375
-8.0151587 5.6581349 12.03125
-8.0151587 5.6581349 14.84375
-7.1490221 6.954401 12.03125
-7.1490221 6.954401 14.84375
-7.4364252 6.5242729 12.03125
-7.4364252 6.5242729 14.84375
-5.6581359 8.0151596 12.03125
-5.6581359 8.0151596 14.84375
-7.8675289 5.8790798 7.8125
-7.8675289 5.8790798 13.4375
-2.6407571 9.474721 7.8125
-4.3618698 8.8812962 6.40625
-4.3618698 8.8812962 9.21875
-1.559556 9.689785 6.40625
-1.559556 9.689785 9.21875
-2.6407571 9.474721 13.4375
-4.3618698 8.8812962 12.03125
-4.3618698 8.8812962 14.84375
-1.559556 9.689785 12.03125
-1.559556 9.689785 14.84375
-9.474721 2.6407571 19.0625
-9.689785 1.559556 17.65625
-9.689785 1.559556 20.46875
-8.8812962 4.3618698 17.65625
-8.8812962 4.3618698 20.46875
-9.474721 2.6407571 24.6875
-9.689785 1.559556 23.28125
-9.689785 1.559556 26.09375
-8.8812962 4.3618698 23.28125
-8.8812962 4.3618698 26.09375
-7.2927241 6.739337 19.0625
-8.0151587 5.6581349 17.65625
-8.0151587 5.6581349 20.46875
-7.1490221 6.954401 17.65625
-7.1490221 6.954401 20.46875
-7.4364252 6.5242729 17.65625
-7.4364252 6.5242729 20.46875
-5.6581359 8.0151596 17.65625
-5.6581359 8.0151596 20.46875
-7.2927241 6.739337 24.6875
-8.0151596 5.6581359 23.28125
-8.0151596 5.6581359 26.09375
-7.1490221 6.954401 23.28125
-7.1490221 6.954401 26.09375
-7.4364252 6.5242729 23.28125
-7.4364252 6.5242729 26.09375
-5.6581359 8.0151596 23.28125
-5.6581359 8.0151596 26.09375
-7.8675299 5.8790798 19.0625
-7.8675299 5.8790798 24.6875
-2.6407571 9.474721 19.0625
-4.3618698 8.8812962 17.65625
-4.3618698 8.8812962 20.46875
-1.559556 9.689785 17.65625
-1.559556 9.689785 20.46875
-2.6407571 9.474721 24.6875
-4.3618698 8.8812962 23.28125
-4.3618698 8.8812962 26.09375
-1.559556 9.689785 23.28125
-1.559556 9.689785 26.09375
-5.0070629 8.4501925 7.8125
-6.088264 7.727757 6.40625
-6.088264 7.727757 9.21875
-5.222127 8.3064899 6.40625
-5.222127 8.3064899 9.21875
-4.7919989 8.593894 6.40625
-4.7919989 8.593894 9.21875
-3.9258609 9.1726255 6.40625
-3.9258609 9.1726255 9.21875
-5.0070629 8.4501925 13.4375
-6.088264 7.727757 12.03125
-6.088264 7.727757 14.84375
-5.222127 8.3064899 12.03125
-5.222127 8.3064899 14.84375
-4.7919989 8.593894 12.03125
-4.7919989 8.593894 14.84375
-3.9258609 9.1726255 12.03125
-3.9258609 9.1726255 14.84375
-3.826834 9.2387953 7.8125
-3.826834 9.2387953 6.40625
-3.826834 9.2387953 9.21875
-3.826834 9.2387953 13.4375
-3.826834 9.2387953 12.03125
-3.826834 9.2387953 14.84375
-1.923226 9.6174459 7.8125
-3.004427 9.4023819 6.40625
-3.004427 9.4023819 9.21875
-2.6456611 9.4737444 6.40625
-2.6456611 9.4737444 9.21875
-1.20079 9.7611465 6.40625
-1.20079 9.7611465 9.21875
-0.84202403 9.83251 6.40625
-0.84202403 9.83251 9.21875
-1.923226 9.6174459 13.4375
-3.004427 9.4023819 12.03125
-3.004427 9.4023819 14.84375
-2.6456611 9.4737444 12.03125
-2.6456611 9.4737444 14.84375
-1.20079 9.7611465 12.03125
-1.20079 9.7611465 14.84375
-0.84202403 9.83251 12.03125
-0.84202403 9.83251 14.84375
-1.205694 9.7601719 7.8125
-2.286896 9.5451078 6.40625
-2.286896 9.5451078 9.21875
-0.48325801 9.9038734 6.40625
-0.48325801 9.9038734 9.21875
-1.205694 9.7601719 13.4375
-2.286896 9.5451078 12.03125
-2.286896 9.5451078 14.84375
-0.48325801 9.9038734 12.03125
-0.48325801 9.9038734 14.84375
-5.007062 8.4501905 19.0625
-6.088264 7.727757 17.65625
-6.088264 7.727757 20.46875
-5.222127 8.3064899 17.65625
-5.222127 8.3064899 20.46875
-4.7919979 8.5938931 17.65625
-4.7919979 8.5938931 20.46875
-3.9258609 9.1726255 17.65625
-3.9258609 9.1726255 20.46875
-5.007062 8.4501905 24.6875
-6.088264 7.727757 23.28125
-6.088264 7.727757 26.09375
-5.222127 8.3064899 23.28125
-5.222127 8.3064899 26.09375
-4.7919979 8.5938931 23.28125
-4.7919979 8.5938931 26.09375
-3.9258609 9.1726255 23.28125
-3.9258609 9.1726255 26.09375
-3.826834 9.2387953 19.062502
-3.826834 9.2387953 17.65625
-3.826834 9.2387953 20.46875
-3.826834 9.2387953 24.6875
-3.826834 9.2387953 23.28125
-3.826834 9.2387953 26.093752
-1.923226 9.6174459 19.0625
-3.004427 9.4023819 17.65625
-3.004427 9.4023819 20.46875
-2.6456611 9.4737444 17.65625
-2.6456611 9.4737444 20.46875
-1.20079 9.7611465 17.65625
-1.20079 9.7611465 20.46875
-0.84202403 9.83251 17.65625
-0.84202403 9.83251 20.46875
-1.923226 9.6174459 24.6875
-3.004427 9.4023819 23.28125
-3.004427 9.4023819 26.09375
-2.6456611 9.4737444 23.28125
-2.6456611 9.4737444 26.09375
-1.20079 9.7611465 23.28125
-1.20079 9.7611465 26.09375
-0.84202403 9.83251 23.28125
-0.84202403 9.83251 26.09375
-1.205694 9.7601719 19.0625
-2.286896 9.5451078 17.65625
-2.286896 9.5451078 20.46875
-0.48325801 9.9038734 17.65625
-0.48325801 9.9038734 20.46875
-1.205694 9.7601719 24.6875
-2.286896 9.5451078 23.28125
-2.286896 9.5451078 26.09375
-0.48325801 9.9038734 23.28125
-0.48325801 9.9038734 26.09375
-9.7601719 1.205694 30.3125
-9.9038734 0.48325801 28.90625
-9.9038734 0.48325801 31.71875
-9.5451078 2.286896 28.90625
-9.5451078 2.286896 31.71875
-9.7601719 1.205694 35.9375
-9.9038734 0.48325801 34.53125
-9.9038734 0.48325801 37.34375
-9.5451078 2.286896 34.53125
-9.5451078 2.286896 37.34375
-9.2387953 3.826834 30.3125
-9.2387953 3.826834 28.90625
-9.2387953 3.826834 31.71875
-9.2387953 3.826834 35.9375
-9.2387953 3.826834 34.53125
-9.2387953 3.826834 37.34375
-9.6174459 1.923226 30.3125
-9.83251 0.84202403 28.90625
-9.83251 0.84202403 31.71875
-9.4737444 2.6456611 28.90625
-9.4737444 2.6456611 31.71875
-9.7611465 1.20079 28.90625
-9.7611465 1.20079 31.71875
-9.4023819 3.004427 28.90625
-9.4023819 3.004427 31.71875
-9.6174459 1.923226 35.9375
-9.83251 0.84202403 34.53125
-9.83251 0.84202403 37.34375
-9.4737444 2.6456611 34.53125
-9.4737444 2.6456611 37.34375
-9.7611465 1.20079 34.53125
-9.7611465 1.20079 37.34375
-9.4023819 3.004427 34.53125
-9.4023819 3.004427 37.34375
-8.4501905 5.007062 30.3125
-9.1726255 3.9258609 28.90625
-9.1726255 3.9258609 31.71875
-8.3064899 5.222127 28.90625
-8.3064899 5.222127 31.71875
-8.5938931 4.7919979 28.90625
-8.5938931 4.7919979 31.71875
-7.727757 6.088264 28.90625
-7.727757 6.088264 31.71875
-8.4501925 5.0070629 35.9375
-9.1726255 3.9258609 34.53125
-9.1726255 3.9258609 37.34375
-8.3064899 5.222127 34.53125
-8.3064899 5.222127 37.34375
-8.5938931 4.7919979 34.53125
-8.593894 4.7919989 37.34375
-7.727757 6.088264 34.53125
-7.727757 6.088264 37.34375
-9.7601719 1.205694 41.5625
-9.9038734 0.48325801 40.15625
-9.9038734 0.48325801 42.96875
-9.5451078 2.286896 40.15625
-9.5451078 2.286896 42.96875
-9.7601719 1.205694 47.1875
-9.9038734 0.48325801 45.78125
-9.9038734 0.48325801 48.59375
-9.5451078 2.286896 45.78125
-9.5451078 2.286896 48.59375
-9.2387953 3.826834 41.5625
-9.2387953 3.826834 40.15625
-9.2387953 3.826834 42.96875
-9.2387953 3.826834 47.1875
-9.2387953 3.826834 45.78125
-9.2387953 3.826834 48.59375
-9.6174459 1.923226 41.5625
-9.83251 0.84202403 40.15625
-9.83251 0.84202403 42.96875
-9.4737444 2.6456611 40.15625
-9.4737444 2.6456611 42.96875
-9.7611465 1.20079 40.15625
-9.7611465 1.20079 42.96875
-9.4023819 3.004427 40.15625
-9.4023819 3.004427 42.96875
-9.6174459 1.923226 47.1875
-9.83251 0.84202403 45.78125
-9.83251 0.84202403 48.59375
-9.4737444 2.6456611 45.78125
-9.4737444 2.6456611 48.59375
-9.7611465 1.20079 45.78125
-9.7611465 1.20079 48.59375
-9.4023819 3.004427 45.78125
-9.4023819 3.004427 48.59375
-8.4501925 5.0070629 41.5625
-9.1726255 3.9258609 40.15625
-9.1726255 3.9258609 42.96875
-8.3064899 5.222127 40.15625
-8.3064899 5.222127 42.96875
-8.593894 4.7919989 40.15625
-8.593894 4.7919989 42.96875
-7.727757 6.088264 40.15625
-7.727757 6.088264 42.96875
-8.4501925 5.0070629 47.1875
-9.1726255 3.9258609 45.78125
-9.1726274 3.9258621 48.59375
-8.3064899 5.222127 45.78125
-8.3064899 5.222127 48.59375
-8.593894 4.7919989 45.78125
-8.593894 4.7919989 48.59375
-7.727757 6.088264 45.78125
-7.727757 6.088264 48.59375
-7.8753872 5.867321 30.3125
-7.8753872 5.867321 35.9375
-7.0710678 7.0710678 30.3125
-7.4403529 6.518393 28.90625
-7.4403529 6.518393 31.71875
-7.0710678 7.0710678 28.90625
-7.0710678 7.0710678 31.718748
-6.518393 7.4403529 28.90625
-6.518393 7.4403529 31.71875
-7.0710678 7.0710678 35.9375
-7.4403529 6.518393 34.53125
-7.4403529 6.518393 37.34375
-7.0710678 7.0710678 34.53125
-7.0710678 7.0710678 37.34375
-6.518393 7.4403529 34.53125
-6.518393 7.4403529 37.34375
-5.867321 7.8753872 30.3125
-5.8673201 7.8753862 35.9375
-7.8753872 5.867321 41.5625
-7.8753872 5.867321 47.1875
-7.0710678 7.0710678 41.5625
-7.4403529 6.518393 40.15625
-7.4403529 6.518393 42.96875
-7.0710678 7.0710678 40.15625
-7.0710678 7.0710678 42.96875
-6.518393 7.4403529 40.15625
-6.518393 7.4403529 42.96875
-7.0710678 7.0710678 47.1875
-7.4403529 6.518393 45.78125
-7.4403529 6.518393 48.59375
-7.0710678 7.0710678 45.78125
-7.0710678 7.0710678 48.59375
-6.518393 7.4403529 45.78125
-6.518393 7.4403529 48.59375
-5.8673201 7.8753862 41.5625
-5.8673201 7.8753862 47.1875
-9.474721 2.6407571 30.3125
-9.689785 1.559556 28.90625
-9.689785 1.559556 31.71875
-8.8812962 4.3618698 28.90625
-8.8812962 4.3618698 31.71875
-9.474721 2.6407571 35.9375
-9.689785 1.559556 34.53125
-9.689785 1.559556 37.34375
-8.8812962 4.3618698 34.53125
-8.8812962 4.3618698 37.34375
-7.2927241 6.739337 30.3125
-8.0151596 5.6581359 28.90625
-8.0151596 5.6581359 31.71875
-7.1490221 6.954401 28.90625
-7.1490221 6.954401 31.71875
-7.4364252 6.5242729 28.90625
-7.4364252 6.5242729 31.71875
-5.6581349 8.0151587 28.90625
-5.6581349 8.0151587 31.71875
-7.2927241 6.739337 35.9375
-8.0151596 5.6581359 34.53125
-8.0151596 5.6581359 37.34375
-7.1490221 6.954401 34.53125
-7.1490221 6.954401 37.34375
-7.4364252 6.5242729 34.53125
-7.4364252 6.5242729 37.34375
-5.6581349 8.0151587 34.53125
-5.6581349 8.0151587 37.34375
-7.8675299 5.8790798 30.3125
-5.8790798 7.8675289 35.9375
-2.6407571 9.474721 30.3125
-4.3618698 8.8812962 28.90625
-4.3618698 8.8812962 31.71875
-1.559556 9.689785 28.90625
-1.559556 9.689785 31.71875
-2.6407571 9.474721 35.9375
-4.3618698 8.8812962 34.53125
-4.3618698 8.8812962 37.34375
-1.559556 9.689785 34.53125
-1.559556 9.689785 37.34375
-9.474721 2.6407571 41.5625
-9.689785 1.559556 40.15625
-9.689785 1.559556 42.96875
-8.8812962 4.3618698 40.15625
-8.8812962 4.3618698 42.96875
-9.474721 2.6407571 47.1875
-9.689785 1.559556 45.78125
-9.689785 1.559556 48.59375
-8.8812962 4.3618698 45.78125
-8.8812962 4.3618698 48.59375
-7.2927241 6.739337 41.5625
-8.0151596 5.6581359 40.15625
-8.0151596 5.6581359 42.96875
-7.1490221 6.954401 40.15625
-7.1490221 6.954401 42.96875
-7.4364252 6.5242729 40.15625
-6.524272 7.4364238 42.96875
-5.6581349 8.0151587 40.15625
-5.6581349 8.0151587 42.96875
-6.739337 7.2927232 47.1875
-8.0151596 5.6581359 45.78125
-8.0151596 5.6581359 48.59375
-7.1490221 6.954401 45.78125
-6.954401 7.1490221 48.59375
-6.524272 7.4364238 45.78125
-6.524272 7.4364238 48.59375
-5.6581349 8.0151587 45.78125
-5.6581349 8.0151587 48.59375
-5.8790798 7.8675289 41.5625
-5.8790798 7.8675289 47.1875
-2.6407571 9.474721 41.5625
-4.3618698 8.8812962 40.15625
-4.3618698 8.8812962 42.96875
-1.559556 9.689785 40.15625
-1.559556 9.689785 42.96875
-2.6407571 9.474721 47.1875
-4.3618698 8.8812962 45.78125
-4.3618698 8.8812962 48.59375
-1.559556 9.689785 45.78125
-1.559556 9.689785 48.59375
-5.007062 8.4501905 30.3125
-6.088264 7.727757 28.90625
-6.088264 7.727757 31.71875
-5.222127 8.3064899 28.90625
-5.222127 8.3064899 31.71875
-4.7919979 8.5938931 28.90625
-4.7919979 8.5938931 31.71875
-3.9258609 9.1726255 28.90625
-3.9258609 9.1726255 31.71875
-5.007062 8.4501905 35.9375
-6.088264 7.727757 34.53125
-6.088264 7.727756 37.34375
-5.222127 8.3064899 34.53125
-5.222127 8.3064899 37.34375
-4.7919979 8.5938931 34.53125
-4.7919979 8.5938931 37.34375
-3.9258609 9.1726255 34.53125
-3.9258609 9.1726255 37.34375
-3.826834 9.2387953 30.3125
-3.826834 9.2387953 28.90625
-3.826834 9.2387953 31.718748
-3.826834 9.2387953 35.9375
-3.826834 9.2387953 34.53125
-3.826834 9.2387953 37.34375
-1.923226 9.6174459 30.3125
-3.004427 9.4023819 28.90625
-3.004427 9.4023819 31.71875
-2.6456611 9.4737444 28.90625
-2.6456611 9.4737444 31.71875
-1.20079 9.7611465 28.90625
-1.20079 9.7611465 31.71875
-0.84202403 9.83251 28.90625
-0.84202403 9.83251 31.71875
-1.923226 9.6174459 35.9375
-3.004427 9.4023819 34.53125
-3.004427 9.4023819 37.34375
-2.6456611 9.4737444 34.53125
-2.6456611 9.4737444 37.34375
-1.20079 9.7611465 34.53125
-1.20079 9.7611465 37.34375
-0.84202403 9.83251 34.53125
-0.84202403 9.83251 37.34375
-1.205694 9.7601719 30.3125
-2.286896 9.5451078 28.90625
-2.286896 9.5451078 31.71875
-0.48325801 9.9038734 28.90625
-0.48325801 9.9038734 31.71875
-1.205694 9.7601719 35.9375
-2.286896 9.5451078 34.53125
-2.286896 9.5451078 37.34375
-0.48325801 9.9038734 34.53125
-0.48325801 9.9038734 37.34375
-5.007062 8.4501905 41.5625
-6.088264 7.727756 40.15625
-6.088264 7.727756 42.96875
-5.222127 8.3064899 40.15625
-5.222127 8.3064899 42.96875
-4.7919979 8.5938931 40.15625
-4.7919979 8.5938931 42.96875
-3.9258609 9.1726255 40.15625
-3.9258609 9.1726255 42.96875
-5.007062 8.4501905 47.1875
-6.088264 7.727756 45.78125
-6.088264 7.727756 48.59375
-5.222127 8.3064899 45.78125
-5.222127 8.3064899 48.59375
-4.7919979 8.5938931 45.78125
-4.7919979 8.5938931 48.59375
-3.9258609 9.1726255 45.78125
-3.9258609 9.1726255 48.59375
-3.826834 9.2387953 41.5625
-3.826834 9.2387953 40.15625
-3.826834 9.2387953 42.96875
-3.826834 9.2387953 47.1875
-3.826834 9.2387953 45.78125
-3.826834 9.2387953 48.59375
-1.923226 9.6174459 41.5625
-3.004427 9.4023819 40.15625
-3.004427 9.4023819 42.96875
-2.6456611 9.4737444 40.15625
-2.6456611 9.4737444 42.96875
-1.20079 9.7611465 40.15625
-1.20079 9.7611465 42.96875
-0.84202403 9.83251 40.15625
-0.84202403 9.83251 42.96875
-1.923226 9.6174459 47.1875
-3.004427 9.4023819 45.78125
-3.004427 9.4023819 48.59375
-2.6456611 9.4737444 45.78125
-2.6456611 9.4737444 48.59375
-1.20079 9.7611465 45.78125
-1.20079 9.7611465 48.59375
-0.84202403 9.83251 45.78125
-0.84202403 9.83251 48.59375
-1.205694 9.7601719 41.5625
-2.286896 9.5451078 40.15625
-2.286896 9.5451078 42.96875
-0.48325801 9.9038734 40.15625
-0.48325801 9.9038734 42.96875
-1.205694 9.7601719 47.1875
-2.286896 9.5451078 45.78125
-2.286896 9.5451078 48.59375
-0.48325801 9.9038734 45.78125
-0.48325801 9.9038734 48.59375
-0.48816201 9.9028969 7.8125
-0.48816201 9.9028969 13.4375
-0.48816201 9.9028969 19.0625
-0.48816201 9.9028969 24.6875
-0.48816201 9.9028969 30.3125
-0.48816201 9.9028969 35.9375
-0.48816201 9.9028969 41.5625
-0.48816201 9.9028969 47.1875
2.0601079 -29.767885 -37.1875
1.030054 -29.883942 -38.59375
1.030054 -29.883942 -35.78125
0.9375 -27.1875 -40
1.2386661 -29.860437 -35.78125
2.8815489 -29.675329 -38.59375
2.8815489 -29.675329 -35.78125
2.8125 -27.1875 -40
3.0901611 -29.651825 -35.78125
2.0601079 -29.767885 -31.5625
1.030054 -29.88394 -32.96875
1.030054 -29.88394 -30.15625
1.2386661 -29.860437 -32.96875
1.2386661 -29.860435 -30.15625
2.8815489 -29.675329 -32.96875
2.8815489 -29.675329 -30.15625
3.0901611 -29.651825 -32.96875
3.0901611 -29.651825 -30.15625
1.875 -24.375 -40
0.9375 -25.3125 -40
0.9375 -23.4375 -40
2.8125 -25.3125 -40
2.8125 -23.4375 -40
2.4773331 -29.720875 -31.5625
5.7630978 -29.35066 -37.1875
4.7330441 -29.466717 -38.59375
4.7330441 -29.466717 -35.78125
4.6875 -27.1875 -40
4.9416571 -29.443213 -35.78125
6.5845389 -29.258104 -38.59375
6.5845389 -29.258104 -35.78125
6.5625 -27.1875 -40
7.2171412 -29.058357 -35.78125
5.7630978 -29.35066 -31.5625
4.7330441 -29.466717 -32.96875
4.7330441 -29.466717 -30.15625
4.9416571 -29.443213 -32.96875
4.9416571 -29.443213 -30.15625
6.5845389 -29.258104 -32.96875
6.5845389 -29.258104 -30.15625
7.2171412 -29.058357 -32.96875
7.2171412 -29.058357 -30.15625
5.625 -24.375 -40
4.6875 -25.3125 -40
4.6875 -23.4375 -40
6.5625 -25.3125 -40
7.8016629 -28.853823 -35.78125
6.5625 -23.4375 -40
7.2586899 -29.043818 -31.5625
7.8016629 -28.853823 -32.96875
7.8016629 -28.853823 -30.15625
2.0601079 -29.767883 -25.9375
1.030054 -29.88394 -27.34375
1.030054 -29.88394 -24.53125
1.2386661 -29.860435 -27.34375
1.2386661 -29.860435 -24.53125
2.8815489 -29.675329 -27.34375
2.8815489 -29.675329 -24.53125
3.0901611 -29.651825 -27.34375
3.0901611 -29.651825 -24.53125
2.0601079 -29.767883 -20.3125
1.030054 -29.88394 -21.71875
1.030054 -29.88394 -18.90625
1.2386661 -29.860435 -21.71875
1.2386661 -29.860435 -18.90625
2.8815489 -29.675327 -21.71875
2.8815489 -29.675327 -18.90625
3.0901611 -29.651825 -21.71875
3.0901611 -29.651823 -18.90625
2.4773331 -29.720875 -25.9375
2.4773331 -29.720875 -20.3125
5.7630978 -29.35066 -25.9375
4.7330441 -29.466717 -27.34375
4.7330441 -29.466717 -24.53125
4.9416571 -29.443213 -27.34375
4.9416571 -29.443213 -24.53125
6.5845389 -29.258104 -27.34375
6.5845389 -29.258104 -24.53125
7.2171412 -29.058357 -27.34375
7.2171412 -29.058357 -24.53125
5.7630978 -29.35066 -20.3125
4.7330441 -29.466717 -21.71875
4.7330441 -29.466717 -18.90625
4.9416571 -29.443213 -21.71875
4.9416571 -29.443213 -18.90625
6.5845389 -29.258104 -21.71875
6.5845389 -29.258104 -18.90625
7.2171412 -29.058357 -21.71875
7.2171412 -29.058357 -18.90625
7.2586899 -29.043818 -25.9375
7.8016629 -28.853823 -27.34375
7.8016629 -28.853823 -24.53125
7.2586899 -29.043818 -20.3125
7.8016629 -28.853823 -21.71875
7.8016629 -28.853823 -18.90625
1.875 -20.625 -40
0.9375 -21.5625 -40
0.9375 -19.6875 -40
2.8125 -21.5625 -40
2.8125 -19.6875 -40
1.875 -16.875 -40
0.9375 -17.8125 -40
0.9375 -15.9375 -40
2.8125 -17.8125 -40
2.8125 -15.9375 -40
5.625 -20.625 -40
4.6875 -21.5625 -40
4.6875 -19.6875 -40
6.5625 -21.5625 -40
6.5625 -19.6875 -40
5.625 -16.875 -40
4.6875 -17.8125 -40
4.6875 -15.9375 -40
6.5625 -17.8125 -40
6.5625 -15.9375 -40
9.4305801 -28.28384 -37.1875
8.3030863 -28.67837 -38.59375
8.3030863 -28.67837 -35.78125
8.8876085 -28.473835 -38.59375
8.8876085 -28.473835 -35.78125
9.9735537 -28.093845 -38.59375
9.9735537 -28.093845 -35.78125
10.558075 -27.889313 -38.59375
10.558075 -27.889313 -35.78125
9.4305801 -28.28384 -31.5625
8.3030863 -28.67837 -32.96875
8.3030863 -28.67837 -30.15625
8.8876085 -28.473835 -32.96875
8.8876085 -28.473835 -30.15625
9.9735537 -28.093845 -32.96875
9.9735537 -28.093845 -30.15625
10.558075 -27.889313 -32.96875
10.558075 -27.889313 -30.15625
9.375 -24.375 -40
8.4375 -25.3125 -40
9.4721298 -28.269302 -35.78125
8.4375 -23.4375 -40
10.3125 -25.3125 -40
11.142597 -27.68478 -35.78125
10.3125 -23.4375 -40
10.599624 -27.874773 -31.5625
9.4721298 -28.269302 -32.96875
9.4721298 -28.269302 -30.15625
11.142597 -27.68478 -32.96875
11.142597 -27.68478 -30.15625
12.771515 -27.114798 -37.1875
11.64402 -27.509323 -38.59375
11.64402 -27.509323 -35.78125
12.228542 -27.304792 -38.59375
12.228542 -27.304792 -35.78125
13.01651 -27.02907 -38.59375
13.01651 -27.02907 -35.78125
13.695052 -26.602711 -38.59375
13.695052 -26.602711 -35.78125
12.771515 -27.114798 -31.5625
11.64402 -27.509323 -32.96875
11.64402 -27.509323 -30.15625
12.228542 -27.304792 -32.96875
12.228542 -27.304792 -30.15625
13.01651 -27.02907 -32.96875
13.01651 -27.02907 -30.15625
13.695053 -26.602713 -32.96875
13.695053 -26.602713 -30.15625
14.289909 -26.228937 -37.1875
12.1875 -25.3125 -40
12.813064 -27.100258 -35.78125
12.1875 -23.4375 -40
14.040106 -26.385899 -35.78125
14.539711 -26.071976 -38.59375
14.539711 -26.071976 -35.78125
14.0625 -23.4375 -40
15.38437 -25.541239 -35.78125
14.289909 -26.228937 -31.5625
12.813064 -27.100258 -32.96875
12.813064 -27.100258 -30.15625
14.040106 -26.385899 -32.96875
14.040107 -26.3859 -30.15625
14.539711 -26.071976 -32.96875
14.539711 -26.071976 -30.15625
15.38437 -25.541239 -32.96875
15.38437 -25.541239 -30.15625
9.4305801 -28.28384 -25.9375
8.3030863 -28.67837 -27.34375
8.3030863 -28.67837 -24.53125
8.8876085 -28.473835 -27.34375
8.8876085 -28.473835 -24.53125
9.9735537 -28.093845 -27.34375
9.9735537 -28.093845 -24.53125
10.558075 -27.889313 -27.34375
10.558075 -27.889313 -24.53125
9.4305801 -28.28384 -20.3125
8.3030863 -28.67837 -21.71875
8.3030863 -28.67837 -18.90625
8.8876085 -28.473835 -21.71875
8.8876085 -28.473835 -18.90625
9.9735537 -28.093845 -21.71875
9.9735537 -28.093845 -18.90625
10.558075 -27.889313 -21.71875
10.558075 -27.889313 -18.90625
10.599624 -27.874773 -25.9375
9.4721298 -28.269302 -27.34375
9.4721298 -28.269302 -24.53125
11.142597 -27.68478 -27.34375
11.142597 -27.68478 -24.53125
10.599624 -27.874773 -20.3125
9.4721298 -28.269302 -21.71875
9.4721298 -28.269302 -18.90625
11.142597 -27.68478 -21.71875
11.142597 -27.68478 -18.90625
12.771515 -27.114798 -25.9375
11.64402 -27.509323 -27.34375
11.64402 -27.509323 -24.53125
12.228542 -27.304792 -27.34375
12.228542 -27.304792 -24.53125
13.01651 -27.02907 -27.34375
13.01651 -27.02907 -24.53125
13.695053 -26.602713 -27.34375
13.695053 -26.602713 -24.53125
12.771515 -27.114798 -20.3125
11.64402 -27.509323 -21.71875
11.64402 -27.509323 -18.90625
12.228542 -27.304792 -21.71875
12.228542 -27.304792 -18.90625
13.01651 -27.02907 -21.71875
13.01651 -27.02907 -18.90625
13.695053 -26.602713 -21.71875
13.695053 -26.602713 -18.90625
14.28991 -26.228939 -25.9375
12.813064 -27.100258 -27.34375
12.813064 -27.100258 -24.53125
14.040107 -26.3859 -27.34375
14.040107 -26.3859 -24.53125
14.539712 -26.071976 -27.34375
14.539712 -26.071976 -24.53125
15.38437 -25.541239 -27.34375
15.38437 -25.541239 -24.53125
14.28991 -26.228939 -20.3125
12.813064 -27.100258 -21.71875
12.813064 -27.100258 -18.90625
14.040107 -26.3859 -21.71875
14.040107 -26.3859 -18.90625
14.539712 -26.071976 -21.71875
14.539712 -26.071976 -18.90625
15.384371 -25.541241 -21.71875
15.384371 -25.541241 -18.90625
9.375 -20.625 -40
8.4375 -21.5625 -40
8.4375 -19.6875 -40
10.3125 -21.5625 -40
10.3125 -19.6875 -40
11.768668 -27.46571 -31.5625
9.375 -16.875 -40
8.4375 -17.8125 -40
8.4375 -15.9375 -40
10.3125 -17.8125 -40
10.3125 -15.9375 -40
13.125 -20.625 -40
12.1875 -21.5625 -40
12.1875 -19.6875 -40
14.0625 -21.5625 -40
14.0625 -19.6875 -40
15.979227 -25.167465 -31.5625
13.125 -16.875 -40
12.1875 -17.8125 -40
12.1875 -15.9375 -40
14.0625 -17.8125 -40
14.0625 -15.9375 -40
11.768668 -27.46571 -25.9375
11.768668 -27.46571 -20.3125
15.979227 -25.167465 -25.9375
15.979227 -25.167465 -20.3125
2.0601079 -29.767883 -14.6875
1.030054 -29.88394 -16.09375
1.030054 -29.88394 -13.28125
1.2386661 -29.860435 -16.09375
1.2386661 -29.860435 -13.28125
2.8815489 -29.675327 -16.09375
2.8815489 -29.675327 -13.28125
3.0901611 -29.651823 -16.09375
3.0901611 -29.651823 -13.28125
2.0601079 -29.767883 -9.0625
1.030054 -29.88394 -10.46875
1.030054 -29.88394 -7.65625
1.2386661 -29.860435 -10.46875
1.2386661 -29.860435 -7.65625
2.8815489 -29.675327 -10.46875
2.8815489 -29.675327 -7.65625
3.0901611 -29.651823 -10.46875
3.0901611 -29.651823 -7.65625
2.4773331 -29.720875 -14.6875
2.4773331 -29.720875 -9.0625
5.7630978 -29.35066 -14.6875
4.7330441 -29.466717 -16.09375
4.7330441 -29.466717 -13.28125
4.9416571 -29.443213 -16.09375
4.9416571 -29.443213 -13.28125
6.5845389 -29.258104 -16.09375
6.5845389 -29.258104 -13.28125
7.2171412 -29.058357 -16.09375
7.2171412 -29.058357 -13.28125
5.7630978 -29.35066 -9.0625
4.7330441 -29.466715 -10.46875
4.7330441 -29.466715 -7.65625
4.9416571 -29.443213 -10.46875
4.9416561 -29.443211 -7.65625
6.5845389 -29.258104 -10.46875
6.5845389 -29.258104 -7.65625
7.2171412 -29.058357 -10.46875
7.2171412 -29.058357 -7.65625
7.2586899 -29.043818 -14.6875
7.8016629 -28.853823 -16.09375
7.8016629 -28.853823 -13.28125
7.2586899 -29.043818 -9.0625
7.8016629 -28.853823 -10.46875
7.8016629 -28.853823 -7.65625
2.0601079 -29.767883 -3.4375
1.030054 -29.88394 -4.84375
1.030054 -29.88394 -2.03125
1.2386661 -29.860435 -4.84375
0.9375 -27.1875 0
2.8815489 -29.675327 -4.84375
2.8815489 -29.675327 -2.03125
3.0901611 -29.651823 -4.84375
2.8125 -27.1875 0
1.875 -28.125 0
0.9375 -29.0625 0
0.9375 -29.0625 0
0.9375 -27.1875 0
0.9375 -27.1875 0
2.8125 -29.0625 0
2.8125 -29.0625 0
2.8125 -27.1875 0
2.8125 -27.1875 0
1.875 -24.375 0
0.9375 -25.3125 0
0.9375 -23.4375 0
2.8125 -25.3125 0
2.8125 -23.4375 0
1.875 -24.375 0
0.9375 -25.3125 0
0.9375 -25.3125 0
0.9375 -23.4375 0
0.9375 -23.4375 0
2.8125 -25.3125 0
2.8125 -25.3125 0
2.8125 -23.4375 0
2.8125 -23.4375 0
5.7630978 -29.350658 -3.4375
4.7330441 -29.466715 -4.84375
4.7330441 -29.466715 -2.03125
4.9416561 -29.443211 -4.84375
4.6875 -27.1875 0
6.5845389 -29.258104 -4.84375
6.5845389 -29.258104 -2.03125
7.2171412 -29.058357 -4.84375
7.2171412 -29.058357 -2.03125
5.625 -28.125 0
4.6875 -29.0625 0
4.6875 -29.0625 0
4.6875 -27.1875 0
4.6875 -27.1875 0
6.5625 -29.0625 0
6.5625 -29.0625 0
6.5625 -27.1875 0
6.5625 -27.1875 0
5.625 -24.375 0
4.6875 -25.3125 0
4.6875 -23.4375 0
7.8016629 -28.853823 -4.84375
6.5625 -25.3125 0
