# .PCD v0.7 - Point Cloud Data file format
VERSION 0.7
FIELDS x y z
SIZE 4 4 4
TYPE F F F
COUNT 1 1 1
WIDTH 1817
HEIGHT 1
VIEWPOINT 0 0 0 1 0 0 0
POINTS 1817
DATA ascii
21.903294 11.955796 2.03125
19.53125 10.082199 0
19.53125 10.082199 0
19.53125 11.633307 0
19.53125 11.633307 0
22.51453 10.621032 1.953125
22.51453 10.621032 2.109375
21.792822 12.115841 1.953125
21.792822 12.115841 2.109375
21.903294 11.955796 2.34375
21.288607 12.846321 2.265625
21.288607 12.846321 2.421875
22.51453 10.621032 2.265625
22.51453 10.621032 2.421875
21.792822 12.115841 2.265625
21.792822 12.115841 2.421875
23.580681 7.8098388 2.03125
23.739584 7.3908401 1.953125
23.739584 7.3908401 2.109375
23.225296 8.7469025 1.953125
23.225296 8.7469025 2.109375
23.936062 6.8727741 1.953125
23.936062 6.8727741 2.109375
23.421772 8.228837 1.953125
23.421772 8.228837 2.109375
23.580681 7.8098388 2.34375
23.739584 7.3908401 2.265625
23.739584 7.3908401 2.421875
23.225296 8.7469025 2.265625
23.225296 8.7469025 2.421875
23.936062 6.8727741 2.265625
23.936062 6.8727741 2.421875
23.421772 8.228837 2.265625
23.421772 8.228837 2.421875
22.552103 10.521965 2.03125
22.711008 10.102966 1.953125
22.711008 10.102966 2.109375
22.19672 11.459029 1.953125
22.19672 11.459029 2.109375
22.907484 9.5849009 1.953125
22.907484 9.5849009 2.109375
22.393198 10.940965 1.953125
22.393198 10.940965 2.109375
22.552103 10.521965 2.34375
22.711008 10.102966 2.265625
22.711008 10.102966 2.421875
22.19672 11.459029 2.265625
22.19672 11.459029 2.421875
22.907484 9.5849009 2.265625
22.907484 9.5849009 2.421875
22.393198 10.940965 2.265625
22.393198 10.940965 2.421875
14.0625 13.959969 0
13.28125 13.184414 0
13.28125 13.184414 0
13.28125 14.735522 0
13.28125 14.735522 0
14.84375 13.184414 0
14.84375 13.184414 0
14.84375 14.735522 0
14.84375 14.735522 0
14.0625 13.959969 0
13.28125 13.184414 0
13.28125 13.184414 0
13.28125 14.735522 0
13.28125 14.735522 0
14.84375 13.184414 0
14.84375 13.184414 0
14.84375 14.735522 0
14.84375 14.735522 0
14.0625 17.062183 0
13.28125 16.286629 0
13.28125 16.286629 0
13.28125 17.837738 0
13.28125 17.837738 0
14.84375 16.286629 0
14.84375 16.286629 0
14.84375 17.837738 0
14.84375 17.837738 0
14.0625 17.062183 0
13.28125 16.286629 0
13.28125 16.286629 0
13.28125 17.837738 0
13.28125 17.837738 0
14.84375 16.286629 0
14.84375 16.286629 0
14.84375 17.837738 0
14.84375 17.837738 0
17.1875 13.959969 0
16.40625 13.184414 0
16.40625 13.184414 0
16.40625 14.735522 0
16.40625 14.735522 0
17.96875 13.184414 0
17.96875 13.184414 0
17.96875 14.735522 0
17.96875 14.735522 0
17.1875 13.959969 0
16.40625 13.184414 0
16.40625 13.184414 0
16.40625 14.735522 0
16.40625 14.735522 0
17.96875 13.184414 0
17.96875 13.184414 0
17.96875 14.735522 0
17.96875 14.735522 0
17.1875 17.062183 0
16.40625 16.286629 0
16.40625 16.286629 0
16.40625 17.837738 0
16.40625 17.837738 0
17.96875 16.286629 0
17.96875 16.286629 0
17.670677 17.501284 0.078125
17.670677 17.501284 0.234375
17.1875 17.062183 0
16.40625 16.286629 0
16.40625 16.286629 0
16.40625 17.837738 0
16.40625 17.837738 0
17.96875 16.286629 0
17.96875 16.286629 0
17.670677 17.501284 0.390625
17.670677 17.501284 0.546875
14.0625 13.959969 0
13.28125 13.184414 0
13.28125 13.184414 0
13.28125 14.735522 0
13.28125 14.735522 0
14.84375 13.184414 0
14.84375 13.184414 0
14.84375 14.735522 0
14.84375 14.735522 0
14.0625 13.959969 0
13.28125 13.184414 0
13.28125 13.184414 0
13.28125 14.735522 0
13.28125 14.735522 0
14.84375 13.184414 0
14.84375 13.184414 0
14.84375 14.735522 0
14.84375 14.735522 0
14.0625 17.062183 0
13.28125 16.286629 0
13.28125 16.286629 0
13.28125 17.837738 0
13.28125 17.837738 0
14.84375 16.286629 0
14.84375 16.286629 0
14.84375 17.837738 0
14.84375 17.837738 0
14.0625 17.062183 0
13.28125 16.286629 0
13.28125 16.286629 0
13.28125 17.837738 0
13.28125 17.837738 0
14.84375 16.286629 0
14.84375 16.286629 0
14.84375 17.837738 0
14.84375 17.837738 0
17.1875 13.959969 0
16.40625 13.184414 0
16.40625 13.184414 0
16.40625 14.735522 0
16.40625 14.735522 0
17.96875 13.184414 0
17.96875 13.184414 0
17.96875 14.735522 0
17.96875 14.735522 0
17.1875 13.959969 0
16.40625 13.184414 0
16.40625 13.184414 0
16.40625 14.735522 0
16.40625 14.735522 0
17.96875 13.184414 0
17.96875 13.184414 0
17.96875 14.735522 0
17.96875 14.735522 0
17.617918 17.548023 0.78125
16.40625 16.286629 0
16.40625 16.286629 0
16.795258 18.276836 0.703125
16.795258 18.276836 0.859375
17.96875 16.286629 0
18.440577 16.819212 0.859375
17.670677 17.501284 0.703125
17.670677 17.501284 0.859375
17.617918 17.548023 1.09375
16.40625 16.286629 0
16.40625 16.286629 0
16.795258 18.276836 1.015625
16.795258 18.276836 1.171875
18.440577 16.819212 1.015625
18.440577 16.819212 1.171875
17.670677 17.501284 1.015625
17.670677 17.501284 1.171875
14.0625 20.164398 0
13.28125 19.388844 0
13.28125 19.388844 0
13.28125 20.939953 0
13.32968 21.03223 0.234375
14.84375 19.388844 0
14.84375 19.388844 0
14.38004 20.416533 0.078125
14.38004 20.416533 0.234375
14.327281 20.463274 0.46875
13.28125 19.388844 0
13.28125 19.388844 0
13.32968 21.03223 0.390625
13.32968 21.03223 0.546875
14.84375 19.388844 0
15.14994 19.734461 0.546875
14.38004 20.416533 0.390625
14.38004 20.416533 0.546875
12.984803 21.213234 0.15625
12.691413 21.367218 0.078125
12.691413 21.367218 0.234375
13.916464 20.724262 0.078125
13.916464 20.724262 0.234375
12.984803 21.213234 0.46875
12.691413 21.367218 0.390625
12.691413 21.367218 0.546875
13.916464 20.724262 0.390625
13.916464 20.724262 0.546875
16.078117 18.912165 0.15625
16.025358 18.958906 0.078125
16.025358 18.958906 0.234375
15.255459 19.640978 0.078125
15.255459 19.640978 0.234375
16.900778 18.183352 0.078125
16.900778 18.183352 0.234375
16.078117 18.912165 0.46875
16.025358 18.958906 0.390625
16.025358 18.958906 0.546875
15.255459 19.640978 0.390625
15.255459 19.640978 0.546875
16.900778 18.183352 0.390625
16.900778 18.183352 0.546875
14.538321 20.276308 0.15625
14.538321 20.276308 0.46875
14.327281 20.463274 0.78125
13.28125 19.388844 0
13.28125 19.388844 0
13.32968 21.03223 0.703125
13.32968 21.03223 0.859375
15.14994 19.734461 0.703125
15.14994 19.734461 0.859375
14.38004 20.416533 0.703125
14.38004 20.416533 0.859375
14.327281 20.463274 1.09375
13.28125 19.388844 0
13.28125 19.388844 0
13.32968 21.03223 1.015625
13.32968 21.03223 1.171875
15.14994 19.734461 1.015625
15.14994 19.734461 1.171875
14.38004 20.416533 1.015625
14.38004 20.416533 1.171875
12.984803 21.213234 0.78125
12.691413 21.367218 0.703125
12.691413 21.367218 0.859375
13.916464 20.724262 0.703125
13.916464 20.724262 0.859375
12.984803 21.213234 1.09375
12.691413 21.367218 1.015625
12.691413 21.367218 1.171875
13.916464 20.724262 1.015625
13.916464 20.724262 1.171875
16.078117 18.912165 0.78125
16.025358 18.958906 0.703125
16.025358 18.958906 0.859375
15.255459 19.640978 0.703125
15.255459 19.640978 0.859375
16.900778 18.183352 0.703125
16.900778 18.183352 0.859375
16.078117 18.912165 1.09375
16.025358 18.958906 1.015625
16.025358 18.958906 1.171875
15.255459 19.640978 1.015625
15.255459 19.640978 1.171875
16.900778 18.183352 1.015625
16.900778 18.183352 1.171875
14.538321 20.276308 0.78125
14.538321 20.276308 1.09375
20.3125 13.959969 0
19.53125 13.184414 0
19.53125 13.184414 0
19.53125 14.735522 0
19.53125 14.735522 0
21.067665 13.166409 0.078125
21.067665 13.166409 0.234375
20.342512 14.21698 0.078125
20.342512 14.21698 0.234375
20.45298 14.056935 0.46875
19.53125 13.184414 0
19.53125 13.184414 0
19.838297 14.947461 0.390625
19.838297 14.947461 0.546875
21.067665 13.166409 0.390625
21.067665 13.166409 0.546875
20.342512 14.21698 0.390625
20.342512 14.21698 0.546875
19.00267 16.158075 0.15625
19.11314 15.998029 0.078125
19.11314 15.998029 0.234375
18.546097 16.725729 0.078125
18.546097 16.725729 0.234375
19.617355 15.267548 0.078125
19.617355 15.267548 0.234375
19.00267 16.158075 0.46875
19.11314 15.998029 0.390625
19.11314 15.998029 0.546875
18.546097 16.725729 0.390625
18.546097 16.725729 0.546875
19.617355 15.267548 0.390625
19.617355 15.267548 0.546875
21.461409 12.595973 0.15625
21.57188 12.435928 0.078125
21.57188 12.435928 0.234375
20.846724 13.486498 0.078125
20.846724 13.486498 0.234375
21.461409 12.595973 0.46875
21.57188 12.435928 0.390625
21.57188 12.435928 0.546875
20.846724 13.486498 0.390625
20.846724 13.486498 0.546875
20.011099 14.697111 0.15625
20.011099 14.697111 0.46875
20.45298 14.056935 0.78125
19.53125 13.184414 0
19.53125 13.184414 0
19.838297 14.947461 0.703125
19.838297 14.947461 0.859375
21.067665 13.166409 0.703125
21.067665 13.166409 0.859375
20.342512 14.21698 0.703125
20.342512 14.21698 0.859375
20.45298 14.056935 1.09375
19.53125 13.184414 0
19.53125 13.184414 0
19.838297 14.947461 1.015625
19.838297 14.947461 1.171875
21.067665 13.166409 1.015625
21.067665 13.166409 1.171875
20.342512 14.21698 1.015625
20.342512 14.21698 1.171875
19.00267 16.158075 0.78125
19.11314 15.998029 0.703125
19.11314 15.998029 0.859375
18.546097 16.725729 0.703125
18.546097 16.725729 0.859375
19.617355 15.267548 0.703125
19.617355 15.267548 0.859375
19.00267 16.158075 1.09375
19.11314 15.998029 1.015625
19.11314 15.998029 1.171875
18.546097 16.725729 1.015625
18.546097 16.725729 1.171875
19.617355 15.267548 1.015625
19.617355 15.267548 1.171875
21.461409 12.595973 0.78125
21.57188 12.435928 0.703125
21.57188 12.435929 0.859375
20.846724 13.486498 0.703125
20.846724 13.486498 0.859375
21.461411 12.595974 1.09375
21.57188 12.435929 1.015625
21.57188 12.435929 1.171875
20.846724 13.486498 1.015625
20.846724 13.486498 1.171875
20.011099 14.697111 0.78125
20.011099 14.697111 1.09375
17.828957 17.361057 0.15625
17.828957 17.361057 0.46875
17.828957 17.361057 0.78125
17.828957 17.361057 1.09375
14.0625 13.959969 0
13.28125 13.184414 0
13.28125 13.184414 0
13.28125 14.735522 0
13.28125 14.735522 0
14.84375 13.184414 0
14.84375 13.184414 0
14.84375 14.735522 0
14.84375 14.735522 0
14.0625 13.959969 0
13.28125 13.184414 0
13.28125 13.184414 0
13.28125 14.735522 0
13.28125 14.735522 0
14.84375 13.184414 0
14.84375 13.184414 0
14.84375 14.735522 0
14.84375 14.735522 0
14.0625 17.062183 0
13.28125 16.286629 0
13.28125 16.286629 0
13.28125 17.837738 0
13.28125 17.837738 0
14.84375 16.286629 0
14.84375 16.286629 0
14.84375 17.837738 0
14.84375 17.837738 0
14.0625 17.062183 0
13.28125 16.286629 0
13.28125 16.286629 0
13.28125 17.837738 0
13.28125 17.837738 0
14.84375 16.286629 0
14.84375 16.286629 0
15.91984 19.052391 1.640625
15.91984 19.052391 1.796875
17.1875 13.959969 0
16.40625 13.184414 0
16.40625 13.184414 0
16.40625 14.735522 0
16.40625 14.735522 0
17.96875 13.184414 0
17.96875 13.184414 0
17.96875 14.735522 0
17.96875 14.735522 0
17.1875 13.959969 0
16.40625 13.184414 0
16.40625 13.184414 0
16.40625 14.735522 0
16.40625 14.735522 0
17.96875 13.184414 0
17.96875 13.184414 0
17.96875 14.735522 0
19.334082 15.677941 1.796875
17.617918 17.548023 1.40625
16.40625 16.286629 0
16.40625 16.286629 0
16.795258 18.276836 1.328125
16.795258 18.276836 1.484375
18.440577 16.819212 1.328125
18.440577 16.819212 1.484375
17.670677 17.501284 1.328125
17.670677 17.501284 1.484375
17.617918 17.548023 1.71875
16.40625 16.286629 0
17.565157 17.594765 1.796875
16.795258 18.276836 1.640625
16.795258 18.276836 1.796875
18.440577 16.819212 1.640625
18.440577 16.819212 1.796875
17.670677 17.501284 1.640625
17.670677 17.501284 1.796875
14.0625 13.959969 0
13.28125 13.184414 0
13.28125 13.184414 0
13.28125 14.735522 0
13.28125 14.735522 0
14.84375 13.184414 0
14.84375 13.184414 0
14.84375 14.735522 0
14.84375 14.735522 0
14.0625 13.959969 0
14.0625 17.062183 0
13.28125 16.286629 0
13.28125 16.286629 0
13.28125 17.837738 0
13.28125 17.837738 0
14.84375 16.286629 0
14.84375 16.286629 0
15.91984 19.052391 1.953125
15.91984 19.052391 2.109375
14.0625 17.062183 0
15.91984 19.052391 2.265625
15.91984 19.052391 2.421875
17.1875 13.959969 0
16.40625 13.184414 0
16.40625 13.184414 0
16.40625 14.735522 0
16.40625 14.735522 0
17.96875 13.184414 0
17.96875 13.184414 0
19.334082 15.677941 1.953125
19.334082 15.677941 2.109375
17.1875 13.959969 0
19.334082 15.677941 2.265625
19.334082 15.677941 2.421875
17.617918 17.548023 2.03125
17.565157 17.594765 1.953125
17.565157 17.594765 2.109375
16.795258 18.276836 1.953125
16.795258 18.276836 2.109375
18.440577 16.819212 1.953125
18.440577 16.819212 2.109375
17.670677 17.501284 1.953125
17.670677 17.501284 2.109375
17.617918 17.548023 2.34375
17.565157 17.594765 2.265625
17.565157 17.594765 2.421875
16.795258 18.276836 2.265625
16.795258 18.276836 2.421875
18.440577 16.819212 2.265625
18.440577 16.819212 2.421875
17.670677 17.501284 2.265625
17.670677 17.501284 2.421875
14.327281 20.463274 1.40625
13.28125 19.388844 0
13.96795 20.697241 1.484375
13.32968 21.03223 1.328125
13.32968 21.03223 1.484375
15.14994 19.734461 1.328125
15.14994 19.734461 1.484375
14.38004 20.416533 1.328125
14.38004 20.416533 1.484375
14.327281 20.463274 1.71875
13.96795 20.697241 1.640625
13.96795 20.697241 1.796875
13.32968 21.03223 1.640625
13.32968 21.03223 1.796875
15.14994 19.734461 1.640625
15.14994 19.734461 1.796875
14.38004 20.416533 1.640625
14.38004 20.416533 1.796875
12.984803 21.213234 1.40625
12.691413 21.367218 1.328125
12.691413 21.367218 1.484375
13.916464 20.724262 1.328125
13.916464 20.724262 1.484375
12.984803 21.213234 1.71875
12.691413 21.367218 1.640625
12.691413 21.367218 1.796875
13.916464 20.724262 1.640625
13.916464 20.724262 1.796875
16.078117 18.912165 1.40625
16.025358 18.958906 1.328125
16.025358 18.958906 1.484375
15.255459 19.640978 1.328125
15.255459 19.640978 1.484375
16.900778 18.183352 1.328125
16.900778 18.183352 1.484375
16.078117 18.912165 1.71875
16.025358 18.958906 1.640625
16.025358 18.958906 1.796875
15.255459 19.640978 1.640625
15.255459 19.640978 1.796875
16.900778 18.183352 1.640625
16.900778 18.183352 1.796875
14.538321 20.276308 1.40625
14.538321 20.276308 1.71875
14.327281 20.463274 2.03125
13.96795 20.697241 1.953125
13.96795 20.697241 2.109375
13.32968 21.03223 1.953125
13.32968 21.03223 2.109375
15.14994 19.734461 1.953125
15.14994 19.734461 2.109375
14.38004 20.416533 1.953125
14.38004 20.416533 2.109375
14.327281 20.463274 2.34375
13.96795 20.697241 2.265625
13.96795 20.697241 2.421875
13.32968 21.03223 2.265625
13.32968 21.03223 2.421875
15.14994 19.734461 2.265625
15.14994 19.734461 2.421875
14.38004 20.416533 2.265625
14.38004 20.416533 2.421875
12.984803 21.213234 2.03125
12.691413 21.367218 1.953125
12.691413 21.367218 2.109375
13.916464 20.724262 1.953125
13.916464 20.724262 2.109375
12.984803 21.213234 2.34375
12.691413 21.367218 2.265625
12.691413 21.367218 2.421875
13.916464 20.724262 2.265625
13.916464 20.724262 2.421875
16.078117 18.912165 2.03125
16.025358 18.958906 1.953125
16.025358 18.958906 2.109375
15.255459 19.640978 1.953125
15.255459 19.640978 2.109375
16.900778 18.183352 1.953125
16.900778 18.183352 2.109375
16.078117 18.912165 2.34375
16.025358 18.958906 2.265625
16.025358 18.958906 2.421875
15.255459 19.640978 2.265625
15.255459 19.640978 2.421875
16.900778 18.183352 2.265625
16.900778 18.183352 2.421875
14.538321 20.276308 2.03125
14.538321 20.276308 2.34375
20.45298 14.056935 1.40625
20.56345 13.89689 1.328125
20.56345 13.89689 1.484375
19.838297 14.947461 1.328125
19.838297 14.947461 1.484375
21.067665 13.166409 1.328125
21.067665 13.166409 1.484375
20.342512 14.21698 1.328125
20.342512 14.21698 1.484375
20.45298 14.056935 1.71875
20.56345 13.89689 1.640625
20.56345 13.89689 1.796875
19.838297 14.947461 1.640625
19.838297 14.947461 1.796875
21.067667 13.16641 1.640625
21.067667 13.16641 1.796875
20.342512 14.21698 1.640625
20.342512 14.21698 1.796875
19.00267 16.158075 1.40625
19.11314 15.998029 1.328125
19.11314 15.998029 1.484375
18.546097 16.725729 1.328125
18.546097 16.725729 1.484375
19.617355 15.267548 1.328125
19.617355 15.267548 1.484375
19.00267 16.158075 1.71875
19.11314 15.998029 1.640625
19.11314 15.998029 1.796875
18.546097 16.725729 1.640625
18.546097 16.725729 1.796875
19.617355 15.267548 1.640625
19.617355 15.267548 1.796875
21.461411 12.595974 1.40625
21.57188 12.435929 1.328125
21.57188 12.435929 1.484375
20.846724 13.486498 1.328125
20.846724 13.486498 1.484375
21.461411 12.595974 1.71875
21.57188 12.435929 1.640625
21.57188 12.435929 1.796875
20.846724 13.486498 1.640625
20.846724 13.486498 1.796875
20.011099 14.697111 1.40625
20.011099 14.697111 1.71875
20.45298 14.056935 2.03125
20.56345 13.89689 1.953125
20.56345 13.89689 2.109375
19.838297 14.947461 1.953125
19.838297 14.947461 2.109375
21.067667 13.16641 1.953125
21.067667 13.16641 2.109375
20.342512 14.21698 1.953125
20.342512 14.21698 2.109375
20.45298 14.056935 2.34375
20.56345 13.89689 2.265625
20.563452 13.896891 2.421875
19.838297 14.947461 2.265625
19.838297 14.947461 2.421875
21.067667 13.16641 2.265625
21.067667 13.16641 2.421875
20.342512 14.21698 2.265625
20.342512 14.21698 2.421875
19.00267 16.158075 2.03125
19.11314 15.998029 1.953125
19.11314 15.998029 2.109375
18.546097 16.725729 1.953125
18.546097 16.725729 2.109375
19.617355 15.267548 1.953125
19.617355 15.267548 2.109375
19.00267 16.158075 2.34375
19.11314 15.998029 2.265625
19.11314 15.998029 2.421875
18.546097 16.725729 2.265625
18.546097 16.725729 2.421875
19.617355 15.267548 2.265625
19.617355 15.267548 2.421875
21.461411 12.595974 2.03125
21.57188 12.435929 1.953125
21.57188 12.435929 2.109375
20.846725 13.486499 1.953125
20.846725 13.486499 2.109375
21.461411 12.595974 2.34375
21.57188 12.435929 2.265625
21.57188 12.435929 2.421875
20.846725 13.486499 2.265625
20.846725 13.486499 2.421875
20.011099 14.697111 2.03125
20.011099 14.697111 2.34375
17.828957 17.361057 1.40625
17.828957 17.361057 1.71875
17.828957 17.361057 2.03125
17.828957 17.361057 2.34375
1.5625 1.551108 0
1.5625 1.551108 0
1.5625 4.6533232 0
1.5625 4.6533232 0
4.6875 1.551108 0
4.6875 1.551108 0
4.6875 4.6533232 0
4.6875 4.6533232 0
1.5625 1.551108 0
1.5625 1.551108 0
1.5625 4.6533232 0
1.5625 4.6533232 0
4.6875 1.551108 0
4.6875 1.551108 0
4.6875 4.6533232 0
4.6875 4.6533232 0
1.5625 7.755538 0
1.5625 7.755538 0
1.5625 10.857753 0
1.5625 10.857753 0
4.6875 7.755538 0
4.6875 7.755538 0
4.6875 10.857753 0
4.6875 10.857753 0
1.5625 7.755538 0
1.5625 7.755538 0
1.5625 10.857753 0
1.5625 10.857753 0
4.6875 7.755538 0
4.6875 7.755538 0
4.6875 10.857753 0
4.6875 10.857753 0
7.8125 1.551108 0
7.8125 1.551108 0
7.8125 4.6533232 0
7.8125 4.6533232 0
10.9375 1.551108 0
10.9375 1.551108 0
10.9375 4.6533232 0
10.9375 4.6533232 0
7.8125 1.551108 0
7.8125 1.551108 0
7.8125 4.6533232 0
7.8125 4.6533232 0
10.9375 1.551108 0
10.9375 1.551108 0
10.9375 4.6533232 0
10.9375 4.6533232 0
7.8125 7.755538 0
7.8125 7.755538 0
7.8125 10.857753 0
7.8125 10.857753 0
10.9375 7.755538 0
10.9375 7.755538 0
10.9375 10.857753 0
10.9375 10.857753 0
7.8125 7.755538 0
7.8125 7.755538 0
7.8125 10.857753 0
7.8125 10.857753 0
10.9375 7.755538 0
10.9375 7.755538 0
10.9375 10.857753 0
10.9375 10.857753 0
1.5625 1.551108 0
1.5625 1.551108 0
1.5625 4.6533232 0
1.5625 4.6533232 0
4.6875 1.551108 0
4.6875 1.551108 0
4.6875 4.6533232 0
4.6875 4.6533232 0
1.5625 7.755538 0
1.5625 7.755538 0
1.5625 10.857753 0
1.5625 10.857753 0
4.6875 7.755538 0
4.6875 7.755538 0
4.6875 10.857753 0
4.6875 10.857753 0
7.8125 1.551108 0
7.8125 1.551108 0
7.8125 4.6533232 0
7.8125 4.6533232 0
10.9375 1.551108 0
10.9375 1.551108 0
10.9375 4.6533232 0
10.9375 4.6533232 0
7.8125 7.755538 0
7.8125 7.755538 0
7.8125 10.857753 0
7.8125 10.857753 0
10.9375 7.755538 0
10.9375 7.755538 0
10.9375 10.857753 0
10.9375 10.857753 0
1.5625 13.959969 0
1.5625 13.959969 0
1.5625 17.062183 0
1.5625 17.062183 0
4.6875 13.959969 0
4.6875 13.959969 0
4.6875 17.062183 0
4.6875 17.062183 0
1.5625 13.959969 0
1.5625 13.959969 0
1.5625 17.062183 0
1.5625 17.062183 0
4.6875 13.959969 0
4.6875 13.959969 0
4.6875 17.062183 0
4.6875 17.062183 0
1.5625 20.164398 0
1.5625 20.164398 0
3.013417 24.81772 2.65625
3.013417 24.81772 2.578125
3.013417 24.81772 2.734375
3.013417 24.81772 2.96875
3.013417 24.81772 2.890625
3.013417 24.81772 3.046875
4.6875 20.164398 0
4.6875 20.164398 0
4.9520388 24.339893 2.65625
4.395741 24.477009 2.578125
4.395741 24.477009 2.734375
4.0353241 24.565842 2.578125
4.0353241 24.565842 2.734375
5.8687539 24.113945 2.578125
5.8687539 24.113945 2.734375
5.508337 24.202778 2.578125
5.508337 24.202778 2.734375
4.9520388 24.339893 2.96875
4.395741 24.477009 2.890625
4.395741 24.477009 3.046875
4.0353241 24.565842 2.890625
4.0353241 24.565842 3.046875
5.8687539 24.113945 2.890625
5.8687539 24.113945 3.046875
5.508337 24.202778 2.890625
5.508337 24.202778 3.046875
1.5625 20.164398 0
1.5625 20.164398 0
3.013417 24.81772 3.28125
3.013417 24.81772 3.203125
3.013417 24.81772 3.359375
3.013417 24.81772 3.59375
3.013417 24.81772 3.515625
3.013417 24.81772 3.671875
4.6875 20.164398 0
4.6875 20.164398 0
4.9520388 24.339893 3.28125
4.395741 24.477009 3.203125
4.395741 24.477009 3.359375
4.0353241 24.565842 3.203125
4.0353241 24.565842 3.359375
5.8687539 24.113945 3.203125
5.8687539 24.113945 3.359375
5.508337 24.202778 3.203125
5.508337 24.202778 3.359375
4.9520388 24.339893 3.59375
4.395741 24.477009 3.515625
4.395741 24.477009 3.671875
4.0353241 24.565842 3.515625
4.0353241 24.565842 3.671875
5.8687539 24.113945 3.515625
5.8687539 24.113945 3.671875
5.508337 24.202778 3.515625
5.508337 24.202778 3.671875
7.8125 13.959969 0
7.8125 13.959969 0
7.8125 17.062183 0
7.8125 17.062183 0
10.9375 13.959969 0
10.9375 13.959969 0
10.9375 17.062183 0
10.9375 17.062183 0
7.8125 13.959969 0
7.8125 13.959969 0
7.8125 17.062183 0
7.8125 17.062183 0
10.9375 13.959969 0
10.9375 13.959969 0
10.9375 17.062183 0
10.9375 17.062183 0
7.8125 20.164398 0
7.8125 20.164398 0
7.8980651 23.613766 2.65625
7.3417668 23.750881 2.578125
7.3417668 23.750881 2.734375
6.9813499 23.839716 2.578125
6.9813499 23.839716 2.734375
9.0162611 23.296087 2.578125
9.0162611 23.296087 2.734375
8.4543629 23.47665 2.578125
8.4543629 23.47665 2.734375
7.8980651 23.613766 2.96875
7.3417668 23.750881 2.890625
7.3417668 23.750881 3.046875
6.9813499 23.839716 2.890625
6.9813499 23.839716 3.046875
9.0162611 23.296087 2.890625
9.0162611 23.296087 3.046875
8.4543629 23.47665 2.890625
8.4543629 23.47665 3.046875
11.811239 21.82917 2.65625
10.879579 22.318142 2.578125
10.879579 22.318142 2.734375
12.742899 21.340197 2.578125
12.742899 21.340197 2.734375
12.10463 21.675186 2.578125
12.10463 21.675186 2.734375
11.811239 21.82917 2.96875
10.879579 22.318142 2.890625
10.879579 22.318142 3.046875
12.742899 21.340197 2.890625
12.742899 21.340197 3.046875
12.10463 21.675186 2.890625
12.10463 21.675186 3.046875
10.534702 22.499147 2.65625
10.241311 22.65313 2.578125
10.241311 22.65313 2.734375
9.6030426 22.988117 2.578125
9.6030426 22.988117 2.734375
11.466362 22.010174 2.578125
11.466362 22.010174 2.734375
10.828093 22.345161 2.578125
10.828093 22.345161 2.734375
10.534702 22.499147 2.96875
10.241311 22.65313 2.890625
10.241311 22.65313 3.046875
9.6030426 22.988117 2.890625
9.6030426 22.988117 3.046875
11.466362 22.010174 2.890625
11.466362 22.010174 3.046875
10.828093 22.345161 2.890625
10.828093 22.345161 3.046875
7.8125 20.164398 0
9.3611374 23.115082 3.59375
7.8980651 23.613766 3.28125
7.3417668 23.750881 3.203125
7.3417668 23.750881 3.359375
6.9813499 23.839716 3.203125
6.9813499 23.839716 3.359375
9.0162611 23.296087 3.203125
9.0162611 23.296087 3.359375
8.4543629 23.47665 3.203125
8.4543629 23.47665 3.359375
7.8980651 23.613766 3.59375
7.3417668 23.750881 3.515625
7.3417668 23.750881 3.671875
6.9813499 23.839716 3.515625
6.9813499 23.839716 3.671875
9.0162611 23.296087 3.515625
9.0162611 23.296087 3.671875
8.4543629 23.47665 3.515625
8.4543629 23.47665 3.671875
11.811239 21.82917 3.28125
10.879579 22.318142 3.203125
10.879579 22.318142 3.359375
12.742899 21.340197 3.203125
12.742899 21.340197 3.359375
12.10463 21.675186 3.203125
12.10463 21.675186 3.359375
11.811239 21.82917 3.59375
10.879579 22.318142 3.515625
10.879579 22.318142 3.671875
12.742899 21.340197 3.515625
12.742899 21.340197 3.671875
12.10463 21.675186 3.515625
12.10463 21.675186 3.671875
10.534702 22.499147 3.28125
10.241311 22.65313 3.203125
10.241311 22.65313 3.359375
9.6030426 22.988117 3.203125
9.6030426 22.988117 3.359375
11.466362 22.010174 3.203125
11.466362 22.010174 3.359375
10.828093 22.345161 3.203125
10.828093 22.345161 3.359375
10.534702 22.499147 3.59375
10.241311 22.65313 3.515625
10.241311 22.65313 3.671875
9.6030426 22.988117 3.515625
9.6030426 22.988117 3.671875
11.466362 22.010174 3.515625
11.466362 22.010174 3.671875
10.828093 22.345161 3.515625
10.828093 22.345161 3.671875
1.5625 13.959969 0
1.5625 13.959969 0
1.5625 17.062183 0
1.5625 17.062183 0
4.6875 13.959969 0
4.6875 13.959969 0
4.6875 17.062183 0
4.6875 17.062183 0
1.5625 20.164398 0
1.5625 20.164398 0
3.013417 24.81772 3.90625
3.013417 24.81772 3.828125
3.013417 24.81772 3.984375
3.013417 24.81772 4.21875
3.013417 24.81772 4.140625
3.013417 24.81772 4.296875
4.6875 20.164398 0
5.672873 24.162226 4.21875
4.9520388 24.339893 3.90625
4.395741 24.477009 3.828125
4.395741 24.477009 3.984375
4.0353241 24.565842 3.828125
4.0353241 24.565842 3.984375
5.8687539 24.113945 3.828125
5.8687539 24.113945 3.984375
5.508337 24.202778 3.828125
5.508337 24.202778 3.984375
4.9520388 24.339893 4.21875
4.395741 24.477009 4.140625
4.395741 24.477009 4.296875
4.0353241 24.565842 4.140625
4.0353241 24.565842 4.296875
5.8687539 24.113945 4.140625
5.8687539 24.113945 4.296875
5.508337 24.202778 4.140625
5.508337 24.202778 4.296875
3.013417 24.81772 4.53125
3.013417 24.81772 4.453125
3.013417 24.81772 4.609375
3.013417 24.81772 4.84375
3.013417 24.81772 4.765625
3.013417 24.81772 4.921875
5.672873 24.162226 4.53125
5.672873 24.162226 4.84375
4.9520388 24.339893 4.53125
4.395741 24.477009 4.453125
4.395741 24.477009 4.609375
4.0353241 24.565842 4.453125
4.0353241 24.565842 4.609375
5.8687539 24.113945 4.453125
5.8687539 24.113945 4.609375
5.508337 24.202778 4.453125
5.508337 24.202778 4.609375
4.9520388 24.339893 4.84375
4.395741 24.477009 4.765625
4.395741 24.477009 4.921875
4.0353241 24.565842 4.765625
4.0353241 24.565842 4.921875
5.8687539 24.113945 4.765625
5.8687539 24.113945 4.921875
5.508337 24.202778 4.765625
5.508337 24.202778 4.921875
7.8125 13.959969 0
7.8125 13.959969 0
7.8125 17.062183 0
7.8125 17.062183 0
10.9375 13.959969 0
10.9375 13.959969 0
10.9375 17.062183 0
10.9375 17.062183 0
9.3611374 23.115082 3.90625
9.3611374 23.115082 4.21875
7.8980651 23.613766 3.90625
7.3417668 23.750881 3.828125
7.3417668 23.750881 3.984375
6.9813499 23.839716 3.828125
6.9813499 23.839716 3.984375
9.0162611 23.296087 3.828125
9.0162611 23.296087 3.984375
8.4543629 23.47665 3.828125
8.4543629 23.47665 3.984375
7.8980651 23.613766 4.21875
7.3417668 23.750881 4.140625
7.3417668 23.750881 4.296875
6.9813499 23.839716 4.140625
6.9813499 23.839716 4.296875
9.0162611 23.296087 4.140625
9.0162611 23.296087 4.296875
8.4543629 23.47665 4.140625
8.4543629 23.47665 4.296875
11.811239 21.82917 3.90625
10.879579 22.318142 3.828125
10.879579 22.318142 3.984375
12.742899 21.340197 3.828125
12.742899 21.340197 3.984375
12.10463 21.675186 3.828125
12.10463 21.675186 3.984375
11.811239 21.82917 4.21875
10.879579 22.318142 4.140625
10.879579 22.318142 4.296875
12.742899 21.340197 4.140625
12.742899 21.340197 4.296875
12.10463 21.675186 4.140625
12.10463 21.675186 4.296875
10.534702 22.499147 3.90625
10.241311 22.65313 3.828125
10.241311 22.65313 3.984375
9.6030426 22.988117 3.828125
9.6030426 22.988117 3.984375
11.466362 22.010174 3.828125
11.466362 22.010174 3.984375
10.828093 22.345161 3.828125
10.828093 22.345161 3.984375
10.534702 22.499147 4.21875
10.241311 22.65313 4.140625
10.241311 22.65313 4.296875
9.6030426 22.988117 4.140625
9.6030426 22.988117 4.296875
11.466362 22.010174 4.140625
11.466362 22.010174 4.296875
10.828093 22.345161 4.140625
10.828093 22.345161 4.296875
9.3611374 23.115082 4.53125
9.3611374 23.115082 4.84375
7.8980651 23.613766 4.53125
7.3417668 23.750881 4.453125
7.3417668 23.750881 4.609375
6.9813499 23.839716 4.453125
6.9813499 23.839716 4.609375
9.0162611 23.296087 4.453125
9.0162611 23.296087 4.609375
8.4543629 23.47665 4.453125
8.4543629 23.47665 4.609375
7.8980651 23.613766 4.84375
7.3417668 23.750881 4.765625
7.3417668 23.750881 4.921875
6.9813499 23.839716 4.765625
6.9813499 23.839716 4.921875
9.0162611 23.296087 4.765625
9.0162611 23.296087 4.921875
8.4543629 23.47665 4.765625
8.4543629 23.47665 4.921875
11.811239 21.82917 4.53125
10.879579 22.318142 4.453125
10.879579 22.318142 4.609375
12.742899 21.340197 4.453125
12.742899 21.340197 4.609375
12.10463 21.675186 4.453125
12.10463 21.675186 4.609375
11.811239 21.82917 4.84375
10.879579 22.318142 4.765625
10.879579 22.318142 4.921875
12.742899 21.340197 4.765625
12.742899 21.340197 4.921875
12.10463 21.675186 4.765625
12.10463 21.675186 4.921875
10.534702 22.499147 4.53125
10.241311 22.65313 4.453125
10.241311 22.65313 4.609375
9.6030426 22.988117 4.453125
9.6030426 22.988117 4.609375
11.466362 22.010174 4.453125
11.466362 22.010174 4.609375
10.828093 22.345161 4.453125
10.828093 22.345161 4.609375
10.534702 22.499147 4.84375
10.241311 22.65313 4.765625
10.241311 22.65313 4.921875
9.6030426 22.988117 4.765625
9.6030426 22.988117 4.921875
11.466362 22.010174 4.765625
11.466362 22.010174 4.921875
10.828093 22.345161 4.765625
10.828093 22.345161 4.921875
14.0625 1.551108 0
14.0625 1.551108 0
14.0625 4.6533232 0
14.0625 4.6533232 0
17.1875 1.551108 0
17.1875 1.551108 0
17.1875 4.6533232 0
17.1875 4.6533232 0
14.0625 1.551108 0
14.0625 1.551108 0
14.0625 4.6533232 0
14.0625 4.6533232 0
17.1875 1.551108 0
17.1875 1.551108 0
17.1875 4.6533232 0
17.1875 4.6533232 0
14.0625 7.755538 0
14.0625 7.755538 0
14.0625 10.857753 0
14.0625 10.857753 0
17.1875 7.755538 0
17.1875 7.755538 0
17.1875 10.857753 0
17.1875 10.857753 0
14.0625 7.755538 0
14.0625 7.755538 0
14.0625 10.857753 0
14.0625 10.857753 0
17.1875 7.755538 0
17.1875 7.755538 0
17.1875 10.857753 0
17.1875 10.857753 0
20.3125 1.551108 0
20.3125 1.551108 0
20.3125 4.6533232 0
20.3125 4.6533232 0
24.791697 1.715536 2.65625
24.687546 2.5733039 2.578125
24.687546 2.5733039 2.734375
24.895847 0.857768 2.578125
24.895847 0.857768 2.734375
24.710245 2.3863389 2.578125
24.710245 2.3863389 2.734375
24.791697 1.715536 2.96875
24.687546 2.5733039 2.890625
24.687546 2.5733039 3.046875
24.895847 0.857768 2.890625
24.895847 0.857768 3.046875
24.710245 2.3863389 2.890625
24.710245 2.3863389 3.046875
24.420496 4.7726789 2.65625
24.501945 4.1018748 2.578125
24.501945 4.1018748 2.734375
24.316345 5.6304469 2.578125
24.316345 5.6304469 2.734375
24.524645 3.914911 2.578125
24.524645 3.914911 2.734375
24.339045 5.4434829 2.578125
24.339045 5.4434829 2.734375
24.420496 4.7726789 2.96875
24.501945 4.1018748 2.890625
24.501945 4.1018748 3.046875
24.316345 5.6304469 2.890625
24.316345 5.6304469 3.046875
24.524645 3.914911 2.890625
24.524645 3.914911 3.046875
24.339045 5.4434829 2.890625
24.339045 5.4434829 3.046875
20.3125 1.551108 0
20.3125 1.551108 0
20.3125 4.6533232 0
20.3125 4.6533232 0
24.791697 1.715536 3.28125
24.687546 2.5733039 3.203125
24.687546 2.5733039 3.359375
24.895847 0.857768 3.203125
24.895847 0.857768 3.359375
24.710245 2.3863389 3.203125
24.710245 2.3863389 3.359375
24.791697 1.715536 3.59375
24.687546 2.5733039 3.515625
24.687546 2.5733039 3.671875
24.895847 0.857768 3.515625
24.895847 0.857768 3.671875
24.710245 2.3863389 3.515625
24.710245 2.3863389 3.671875
24.420496 4.7726789 3.28125
24.501945 4.1018748 3.203125
24.501945 4.1018748 3.359375
24.316345 5.6304469 3.203125
24.316345 5.6304469 3.359375
24.524645 3.914911 3.203125
24.524645 3.914911 3.359375
24.339045 5.4434829 3.203125
24.339045 5.4434829 3.359375
24.420496 4.7726789 3.59375
24.501945 4.1018748 3.515625
24.501945 4.1018748 3.671875
24.316345 5.6304469 3.515625
24.316345 5.6304469 3.671875
24.524645 3.914911 3.515625
24.524645 3.914911 3.671875
24.339045 5.4434829 3.515625
24.339045 5.4434829 3.671875
20.3125 7.755538 0
23.02882 9.2649679 2.578125
23.02882 9.2649679 2.734375
20.3125 7.755538 0
23.02882 9.2649679 2.890625
23.02882 9.2649679 3.046875
21.903294 11.955796 2.65625
21.288607 12.846321 2.578125
21.288607 12.846321 2.734375
22.51453 10.621032 2.578125
22.51453 10.621032 2.734375
21.792822 12.115841 2.578125
21.792822 12.115841 2.734375
21.903294 11.955796 2.96875
21.288607 12.846321 2.890625
21.288607 12.846321 3.046875
22.51453 10.621032 2.890625
22.51453 10.621032 3.046875
21.792822 12.115841 2.890625
21.792822 12.115841 3.046875
23.580681 7.8098388 2.65625
23.739584 7.3908401 2.578125
23.739584 7.3908401 2.734375
23.225296 8.7469025 2.578125
23.225296 8.7469025 2.734375
23.936062 6.8727741 2.578125
23.936062 6.8727741 2.734375
23.421772 8.228837 2.578125
23.421772 8.228837 2.734375
23.580681 7.8098388 2.96875
23.739584 7.3908401 2.890625
23.739584 7.3908401 3.046875
23.225296 8.7469025 2.890625
23.225296 8.7469025 3.046875
23.936062 6.8727741 2.890625
23.936062 6.8727741 3.046875
23.421772 8.228837 2.890625
23.421772 8.228837 3.046875
22.552103 10.521965 2.65625
22.711008 10.102966 2.578125
22.711008 10.102966 2.734375
22.19672 11.459029 2.578125
22.19672 11.459029 2.734375
22.907484 9.5849009 2.578125
22.907484 9.5849009 2.734375
22.393198 10.940965 2.578125
22.393198 10.940965 2.734375
22.552103 10.521965 2.96875
22.711008 10.102966 2.890625
22.711008 10.102966 3.046875
22.19672 11.459029 2.890625
22.19672 11.459029 3.046875
22.907484 9.5849009 2.890625
22.907484 9.5849009 3.046875
22.393198 10.940965 2.890625
22.393198 10.940965 3.046875
23.187727 8.8459702 3.28125
23.02882 9.2649679 3.203125
23.02882 9.2649679 3.359375
23.187727 8.8459702 3.59375
23.02882 9.2649679 3.515625
23.02882 9.2649679 3.671875
21.903294 11.955796 3.28125
21.288607 12.846321 3.203125
21.288607 12.846321 3.359375
22.51453 10.621032 3.203125
22.51453 10.621032 3.359375
21.792822 12.115841 3.203125
21.792822 12.115841 3.359375
21.903294 11.955796 3.59375
21.288607 12.846321 3.515625
21.288607 12.846321 3.671875
22.51453 10.621032 3.515625
22.51453 10.621032 3.671875
21.792822 12.115841 3.515625
21.792822 12.115841 3.671875
23.580681 7.8098388 3.28125
23.739584 7.3908401 3.203125
23.739584 7.3908401 3.359375
23.225296 8.7469025 3.203125
23.225296 8.7469025 3.359375
23.936062 6.8727741 3.203125
23.936062 6.8727741 3.359375
23.421772 8.228837 3.203125
23.421772 8.228837 3.359375
23.580681 7.8098388 3.59375
23.739584 7.3908401 3.515625
23.739584 7.3908401 3.671875
23.225296 8.7469025 3.515625
23.225296 8.7469025 3.671875
23.936062 6.8727741 3.515625
23.936062 6.8727741 3.671875
23.421772 8.228837 3.515625
23.421772 8.228837 3.671875
22.552103 10.521965 3.28125
22.711008 10.102966 3.203125
22.711008 10.102966 3.359375
22.19672 11.459029 3.203125
22.19672 11.459029 3.359375
22.907484 9.5849009 3.203125
22.907484 9.5849009 3.359375
22.393198 10.940965 3.203125
22.393198 10.940965 3.359375
22.552103 10.521965 3.59375
22.711008 10.102966 3.515625
22.711008 10.102966 3.671875
22.19672 11.459029 3.515625
22.19672 11.459029 3.671875
22.907484 9.5849009 3.515625
22.907484 9.5849009 3.671875
22.393198 10.940965 3.515625
22.393198 10.940965 3.671875
14.0625 1.551108 0
14.0625 1.551108 0
14.0625 4.6533232 0
14.0625 4.6533232 0
17.1875 1.551108 0
17.1875 1.551108 0
17.1875 4.6533232 0
17.1875 4.6533232 0
14.0625 7.755538 0
14.0625 7.755538 0
14.0625 10.857753 0
14.0625 10.857753 0
17.1875 7.755538 0
17.1875 7.755538 0
17.1875 10.857753 0
17.1875 10.857753 0
20.3125 1.551108 0
20.3125 1.551108 0
20.3125 4.6533232 0
24.375092 5.1466069 4.21875
24.791697 1.715536 3.90625
24.687546 2.5733039 3.828125
24.687546 2.5733039 3.984375
24.895847 0.857768 3.828125
24.895847 0.857768 3.984375
24.710245 2.3863389 3.828125
24.710245 2.3863389 3.984375
24.791697 1.715536 4.21875
24.687546 2.5733039 4.140625
24.687546 2.5733039 4.296875
24.895847 0.857768 4.140625
24.895847 0.857768 4.296875
24.710245 2.3863389 4.140625
24.710245 2.3863389 4.296875
24.420496 4.7726789 3.90625
24.501945 4.1018748 3.828125
24.501945 4.1018748 3.984375
24.316345 5.6304469 3.828125
24.316345 5.6304469 3.984375
24.524645 3.914911 3.828125
24.524645 3.914911 3.984375
24.339045 5.4434829 3.828125
24.339045 5.4434829 3.984375
24.420496 4.7726789 4.21875
24.501945 4.1018748 4.140625
24.501945 4.1018748 4.296875
24.316345 5.6304469 4.140625
24.316345 5.6304469 4.296875
24.524645 3.914911 4.140625
24.524645 3.914911 4.296875
24.339045 5.4434829 4.140625
24.339045 5.4434829 4.296875
24.375092 5.1466069 4.53125
24.375092 5.1466069 4.84375
24.791697 1.715536 4.53125
24.687546 2.5733039 4.453125
24.687546 2.5733039 4.609375
24.895847 0.857768 4.453125
24.895847 0.857768 4.609375
24.710245 2.3863389 4.453125
24.710245 2.3863389 4.609375
24.791697 1.715536 4.84375
24.687546 2.5733039 4.765625
24.687546 2.5733039 4.921875
24.895847 0.857768 4.765625
24.895847 0.857768 4.921875
24.710245 2.3863389 4.765625
24.710245 2.3863389 4.921875
24.420496 4.7726789 4.53125
24.501945 4.1018748 4.453125
24.501945 4.1018748 4.609375
24.316345 5.6304469 4.453125
24.316345 5.6304469 4.609375
24.524645 3.914911 4.453125
24.524645 3.914911 4.609375
24.339045 5.4434829 4.453125
24.339045 5.4434829 4.609375
24.420496 4.7726789 4.84375
24.501945 4.1018748 4.765625
24.501945 4.1018748 4.921875
24.316345 5.6304469 4.765625
24.316345 5.6304469 4.921875
24.524645 3.914911 4.765625
24.524645 3.914911 4.921875
24.339045 5.4434829 4.765625
24.339045 5.4434829 4.921875
23.187727 8.8459702 3.90625
23.02882 9.2649679 3.828125
23.02882 9.2649679 3.984375
23.187727 8.8459702 4.21875
23.02882 9.2649679 4.140625
23.02882 9.2649679 4.296875
21.903294 11.955796 3.90625
21.288607 12.846321 3.828125
21.288607 12.846321 3.984375
22.51453 10.621032 3.828125
22.51453 10.621032 3.984375
21.792822 12.115841 3.828125
21.792822 12.115841 3.984375
21.903294 11.955796 4.21875
21.288607 12.846321 4.140625
21.288607 12.846321 4.296875
22.51453 10.621032 4.140625
22.51453 10.621032 4.296875
21.792822 12.115841 4.140625
21.792822 12.115841 4.296875
23.580681 7.8098388 3.90625
23.739584 7.3908401 3.828125
23.739584 7.3908401 3.984375
23.225296 8.7469025 3.828125
23.225296 8.7469025 3.984375
23.936062 6.8727741 3.828125
23.936062 6.8727741 3.984375
23.421772 8.228837 3.828125
23.421772 8.228837 3.984375
23.580681 7.8098388 4.21875
23.739584 7.3908401 4.140625
23.739584 7.3908401 4.296875
23.225296 8.7469025 4.140625
23.225296 8.7469025 4.296875
23.936062 6.8727741 4.140625
23.936062 6.8727741 4.296875
23.421772 8.228837 4.140625
23.421772 8.228837 4.296875
22.552103 10.521965 3.90625
22.711008 10.102966 3.828125
22.711008 10.102966 3.984375
22.19672 11.459029 3.828125
22.19672 11.459029 3.984375
22.907484 9.5849009 3.828125
22.907484 9.5849009 3.984375
22.393198 10.940965 3.828125
22.393198 10.940965 3.984375
22.552103 10.521965 4.21875
22.711008 10.102966 4.140625
22.711008 10.102966 4.296875
22.19672 11.459029 4.140625
22.19672 11.459029 4.296875
22.907484 9.5849009 4.140625
22.907484 9.5849009 4.296875
22.393198 10.940965 4.140625
22.393198 10.940965 4.296875
23.187727 8.8459702 4.53125
23.02882 9.2649679 4.453125
23.02882 9.2649679 4.609375
23.187727 8.8459702 4.84375
23.02882 9.2649679 4.765625
23.02882 9.2649679 4.921875
21.903294 11.955796 4.53125
21.288607 12.846321 4.453125
21.288607 12.846321 4.609375
22.51453 10.621032 4.453125
22.51453 10.621032 4.609375
21.792822 12.115841 4.453125
21.792822 12.115841 4.609375
21.903294 11.955796 4.84375
21.288607 12.846321 4.765625
21.288607 12.846321 4.921875
22.51453 10.621032 4.765625
22.51453 10.621032 4.921875
21.792822 12.115841 4.765625
21.792822 12.115841 4.921875
23.580681 7.8098388 4.53125
23.739584 7.3908401 4.453125
23.739584 7.3908401 4.609375
23.225296 8.7469025 4.453125
23.225296 8.7469025 4.609375
23.936062 6.8727741 4.453125
23.936062 6.8727741 4.609375
23.421772 8.228837 4.453125
23.421772 8.228837 4.609375
23.580681 7.8098388 4.84375
23.739584 7.3908401 4.765625
23.739584 7.3908401 4.921875
23.225296 8.7469025 4.765625
23.225296 8.7469025 4.921875
23.936062 6.8727741 4.765625
23.936062 6.8727741 4.921875
23.421772 8.228837 4.765625
23.421772 8.228837 4.921875
22.552103 10.521965 4.53125
22.711008 10.102966 4.453125
22.711008 10.102966 4.609375
22.19672 11.459029 4.453125
22.19672 11.459029 4.609375
22.907484 9.5849009 4.453125
22.907484 9.5849009 4.609375
22.393198 10.940965 4.453125
22.393198 10.940965 4.609375
22.552103 10.521965 4.84375
22.711008 10.102966 4.765625
22.711008 10.102966 4.921875
22.19672 11.459029 4.765625
22.19672 11.459029 4.921875
22.907484 9.5849009 4.765625
22.907484 9.5849009 4.921875
22.393198 10.940965 4.765625
22.393198 10.940965 4.921875
14.0625 13.959969 0
14.0625 13.959969 0
14.0625 17.062183 0
15.91984 19.052391 2.578125
15.91984 19.052391 2.734375
15.86708 19.099133 2.96875
15.91984 19.052391 2.890625
15.91984 19.052391 3.046875
17.1875 13.959969 0
19.334082 15.677941 2.578125
19.334082 15.677941 2.734375
19.444551 15.517897 2.96875
19.334082 15.677941 2.890625
19.334082 15.677941 3.046875
17.617918 17.548023 2.65625
17.565157 17.594765 2.578125
17.565157 17.594765 2.734375
16.795258 18.276836 2.578125
16.795258 18.276836 2.734375
18.440577 16.819212 2.578125
18.440577 16.819212 2.734375
17.670677 17.501284 2.578125
17.670677 17.501284 2.734375
17.617918 17.548023 2.96875
17.565157 17.594765 2.890625
17.565157 17.594765 3.046875
16.795258 18.276836 2.890625
16.795258 18.276836 3.046875
18.440577 16.819212 2.890625
18.440577 16.819212 3.046875
17.670677 17.501284 2.890625
17.670677 17.501284 3.046875
14.0625 13.959969 0
14.0625 13.959969 0
15.86708 19.099133 3.28125
15.91984 19.052391 3.203125
15.91984 19.052391 3.359375
15.86708 19.099133 3.59375
15.91984 19.052391 3.515625
15.91984 19.052391 3.671875
19.444551 15.517897 3.28125
19.334082 15.677941 3.203125
19.334082 15.677941 3.359375
19.444551 15.517897 3.59375
19.334082 15.677941 3.515625
19.334082 15.677941 3.671875
17.617918 17.548023 3.28125
17.565157 17.594765 3.203125
17.565157 17.594765 3.359375
16.795258 18.276836 3.203125
16.795258 18.276836 3.359375
18.440577 16.819212 3.203125
18.440577 16.819212 3.359375
17.670677 17.501284 3.203125
17.670677 17.501284 3.359375
17.617918 17.548023 3.59375
17.565157 17.594765 3.515625
17.565157 17.594765 3.671875
16.795258 18.276836 3.515625
16.795258 18.276836 3.671875
18.440577 16.819212 3.515625
18.440577 16.819212 3.671875
17.670677 17.501284 3.515625
17.670677 17.501284 3.671875
14.327281 20.463274 2.65625
13.96795 20.697241 2.578125
13.96795 20.697241 2.734375
13.32968 21.03223 2.578125
13.32968 21.03223 2.734375
15.14994 19.734461 2.578125
15.14994 19.734461 2.734375
14.38004 20.416533 2.578125
14.38004 20.416533 2.734375
14.327281 20.463274 2.96875
13.96795 20.697241 2.890625
13.96795 20.697241 3.046875
13.32968 21.03223 2.890625
13.32968 21.03223 3.046875
15.14994 19.734461 2.890625
15.14994 19.734461 3.046875
14.38004 20.416533 2.890625
14.38004 20.416533 3.046875
12.984803 21.213234 2.65625
12.691413 21.367218 2.578125
12.691413 21.367218 2.734375
13.916464 20.724262 2.578125
13.916464 20.724262 2.734375
12.984803 21.213234 2.96875
12.691413 21.367218 2.890625
12.691413 21.367218 3.046875
13.916464 20.724262 2.890625
13.916464 20.724262 3.046875
16.078117 18.912165 2.65625
16.025358 18.958906 2.578125
16.025358 18.958906 2.734375
15.255459 19.640978 2.578125
15.255459 19.640978 2.734375
16.900778 18.183352 2.578125
16.900778 18.183352 2.734375
16.078117 18.912165 2.96875
16.025358 18.958906 2.890625
16.025358 18.958906 3.046875
15.255459 19.640978 2.890625
15.255459 19.640978 3.046875
16.900778 18.183352 2.890625
16.900778 18.183352 3.046875
14.538321 20.276308 2.65625
14.538321 20.276308 2.96875
14.327281 20.463274 3.28125
13.96795 20.697241 3.203125
13.96795 20.697241 3.359375
13.32968 21.03223 3.203125
13.32968 21.03223 3.359375
15.14994 19.734461 3.203125
15.14994 19.734461 3.359375
14.38004 20.416533 3.203125
14.38004 20.416533 3.359375
14.327281 20.463274 3.59375
13.96795 20.697241 3.515625
13.96795 20.697241 3.671875
13.32968 21.03223 3.515625
13.32968 21.03223 3.671875
15.14994 19.734461 3.515625
15.14994 19.734461 3.671875
14.38004 20.416533 3.515625
14.38004 20.416533 3.671875
12.984803 21.213234 3.28125
12.691413 21.367218 3.203125
12.691413 21.367218 3.359375
13.916464 20.724262 3.203125
13.916464 20.724262 3.359375
12.984803 21.213234 3.59375
12.691413 21.367218 3.515625
12.691413 21.367218 3.671875
13.916464 20.724262 3.515625
13.916464 20.724262 3.671875
16.078117 18.912165 3.28125
16.025358 18.958906 3.203125
16.025358 18.958906 3.359375
15.255459 19.640978 3.203125
15.255459 19.640978 3.359375
16.900778 18.183352 3.203125
16.900778 18.183352 3.359375
16.078117 18.912165 3.59375
16.025358 18.958906 3.515625
16.025358 18.958906 3.671875
15.255459 19.640978 3.515625
15.255459 19.640978 3.671875
16.900778 18.183352 3.515625
16.900778 18.183352 3.671875
14.538321 20.276308 3.28125
14.538321 20.276308 3.59375
20.452982 14.056936 2.65625
20.563452 13.896891 2.578125
20.563452 13.896891 2.734375
19.838297 14.947461 2.578125
19.838297 14.947461 2.734375
21.067667 13.16641 2.578125
21.067667 13.16641 2.734375
20.342512 14.21698 2.578125
20.342512 14.216981 2.734375
20.452982 14.056936 2.96875
20.563452 13.896891 2.890625
20.563452 13.896891 3.046875
19.838297 14.947461 2.890625
19.838297 14.947461 3.046875
21.067667 13.16641 2.890625
21.067667 13.16641 3.046875
20.342512 14.216981 2.890625
20.342512 14.216981 3.046875
19.00267 16.158075 2.65625
19.11314 15.998029 2.578125
19.11314 15.998029 2.734375
18.546097 16.725729 2.578125
18.546097 16.725729 2.734375
19.617355 15.267548 2.578125
19.617355 15.267548 2.734375
19.00267 16.158075 2.96875
19.11314 15.998029 2.890625
19.11314 15.998029 3.046875
18.546097 16.725729 2.890625
18.546097 16.725729 3.046875
19.617355 15.267548 2.890625
19.617355 15.267548 3.046875
21.461411 12.595974 2.65625
21.57188 12.435929 2.578125
21.57188 12.435929 2.734375
20.846725 13.486499 2.578125
20.846725 13.486499 2.734375
21.461411 12.595974 2.96875
21.57188 12.435929 2.890625
21.57188 12.435929 3.046875
20.846725 13.486499 2.890625
20.846725 13.486499 3.046875
20.011099 14.697111 2.65625
20.011099 14.697111 2.96875
20.452982 14.056936 3.28125
20.563452 13.896891 3.203125
20.563452 13.896891 3.359375
19.838297 14.947461 3.203125
19.838297 14.947462 3.359375
21.067667 13.16641 3.203125
21.067667 13.16641 3.359375
20.342512 14.216981 3.203125
20.342512 14.216981 3.359375
20.452982 14.056936 3.59375
20.563452 13.896891 3.515625
20.563452 13.896891 3.671875
19.838297 14.947462 3.515625
19.838297 14.947462 3.671875
21.067667 13.16641 3.515625
21.067667 13.16641 3.671875
20.342512 14.216981 3.515625
20.342512 14.216981 3.671875
19.00267 16.158075 3.28125
19.11314 15.998029 3.203125
19.11314 15.998029 3.359375
18.546097 16.725729 3.203125
18.546097 16.725729 3.359375
19.617355 15.267548 3.203125
19.617355 15.267548 3.359375
19.00267 16.158075 3.59375
19.11314 15.998029 3.515625
19.11314 15.998029 3.671875
18.546097 16.725729 3.515625
18.546097 16.725729 3.671875
19.617355 15.267548 3.515625
19.617355 15.267548 3.671875
21.461411 12.595974 3.28125
21.57188 12.435929 3.203125
21.57188 12.435929 3.359375
20.846725 13.486499 3.203125
20.846725 13.486499 3.359375
21.461411 12.595974 3.59375
21.57188 12.435929 3.515625
21.57188 12.435929 3.671875
20.846725 13.486499 3.515625
20.846725 13.486499 3.671875
20.011101 14.697113 3.28125
20.011101 14.697113 3.59375
17.828957 17.361057 2.65625
17.828957 17.361057 2.96875
17.828957 17.361057 3.28125
17.828957 17.361057 3.59375
14.0625 13.959969 0
14.0625 13.959969 0
15.86708 19.099133 3.90625
15.91984 19.052391 3.828125
15.91984 19.052391 3.984375
15.86708 19.099133 4.21875
15.91984 19.052391 4.140625
15.91984 19.052391 4.296875
19.444551 15.517897 3.90625
19.334082 15.677941 3.828125
19.334082 15.677941 3.984375
19.444553 15.517899 4.21875
19.334084 15.677942 4.140625
19.334084 15.677942 4.296875
17.617918 17.548023 3.90625
17.565157 17.594765 3.828125
17.565157 17.594765 3.984375
