# .PCD v0.7 - Point Cloud Data file format
VERSION 0.7
FIELDS x y z
SIZE 4 4 4
TYPE F F F
COUNT 1 1 1
WIDTH 1729
HEIGHT 1
VIEWPOINT 0 0 0 1 0 0 0
POINTS 1729
DATA ascii
-28.085882 13.90576 9.21875
-29.423306 13.90576 9.6875
-30.760729 13.90576 9.53125
-30.760729 13.90576 9.84375
-30.760729 13.90576 9.53125
-30.760729 13.90576 9.84375
-28.085882 13.90576 9.53125
-28.085882 13.90576 9.84375
-28.085882 13.90576 9.53125
-28.085882 13.90576 9.84375
-27.183098 2.5612049 9.0625
-27.453598 2.7577341 8.90625
-27.453598 2.7577341 9.21875
-27.183098 2.5612049 9.6875
-27.453598 2.7577341 9.53125
-27.453598 2.7577341 9.84375
-24.073612 13.90576 9.0625
-25.411036 13.90576 8.90625
-25.411036 13.90576 9.21875
-25.411036 13.90576 8.90625
-25.411036 13.90576 9.21875
-22.736189 13.90576 8.90625
-22.736189 13.90576 9.21875
-22.736189 13.90576 8.90625
-22.736189 13.90576 9.21875
-24.073612 13.90576 9.6875
-25.411036 13.90576 9.53125
-25.411036 13.90576 9.84375
-25.411036 13.90576 9.53125
-25.411036 13.90576 9.84375
-22.736189 13.90576 9.53125
-22.736189 13.90576 9.84375
-22.736189 13.90576 9.53125
-22.736189 13.90576 9.84375
-29.423306 13.90576 7.8125
-30.760729 13.90576 7.65625
-30.760729 13.90576 7.96875
-28.085882 13.90576 7.65625
-28.085882 13.90576 7.96875
-29.423306 13.90576 8.4375
-30.760729 13.90576 8.28125
-30.760729 13.90576 8.59375
-28.085882 13.90576 8.28125
-28.085882 13.90576 8.59375
-24.073612 13.90576 7.8125
-25.411036 13.90576 7.65625
-25.411036 13.90576 7.96875
-22.736189 13.90576 7.65625
-22.736189 13.90576 7.96875
-24.073612 13.90576 8.4375
-25.411036 13.90576 8.28125
-25.411036 13.90576 8.59375
-22.736189 13.90576 8.28125
-22.736189 13.90576 8.59375
-29.423306 13.90576 9.0625
-30.760729 13.90576 8.90625
-30.760729 13.90576 9.21875
-28.085882 13.90576 8.90625
-28.085882 13.90576 9.21875
-29.423306 13.90576 9.6875
-30.760729 13.90576 9.53125
-30.760729 13.90576 9.84375
-28.085882 13.90576 9.53125
-28.085882 13.90576 9.84375
-24.073612 13.90576 9.0625
-25.411036 13.90576 8.90625
-25.411036 13.90576 9.21875
-22.736189 13.90576 8.90625
-22.736189 13.90576 9.21875
-24.073612 13.90576 9.6875
-25.411036 13.90576 9.53125
-25.411036 13.90576 9.84375
-22.736189 13.90576 9.53125
-22.736189 13.90576 9.84375
-18.723923 6.8410449 0
-18.723923 6.8410449 0
-18.723923 13.90576 5.3125
-20.061346 13.90576 5.15625
-20.061346 13.90576 5.46875
-20.061346 13.90576 5.15625
-20.061346 13.90576 5.46875
-17.386499 13.90576 5.15625
-17.386499 13.90576 5.46875
-17.386499 13.90576 5.15625
-17.386499 13.90576 5.46875
-18.723923 13.90576 5.9375
-20.061346 13.90576 5.78125
-20.061346 13.90576 6.09375
-20.061346 13.90576 5.78125
-20.061346 13.90576 6.09375
-17.386499 13.90576 5.78125
-17.386499 13.90576 6.09375
-17.386499 13.90576 5.78125
-17.386499 13.90576 6.09375
-9.1228476 4.0003629 5.3125
-9.2387953 3.826834 5.15625
-9.2387953 3.826834 5.46875
-9.1228476 4.0003629 5.9375
-9.2387953 3.826834 5.78125
-9.2387953 3.826834 6.09375
-13.374229 13.90576 5.3125
-14.711653 13.90576 5.15625
-14.711653 13.90576 5.46875
-14.711653 13.90576 5.15625
-14.711653 13.90576 5.46875
-12.036806 13.90576 5.15625
-12.036806 13.90576 5.46875
-12.036806 13.90576 5.15625
-12.036806 13.90576 5.46875
-13.374229 13.90576 5.9375
-14.711653 13.90576 5.78125
-14.711653 13.90576 6.09375
-14.711653 13.90576 5.78125
-14.711653 13.90576 6.09375
-12.036806 13.90576 5.78125
-12.036806 13.90576 6.09375
-12.036806 13.90576 5.78125
-12.036806 13.90576 6.09375
-18.723923 6.8410449 0
-18.723923 13.90576 7.1875
-18.723923 13.90576 6.5625
-20.061346 13.90576 6.40625
-20.061346 13.90576 6.71875
-20.061346 13.90576 6.40625
-20.061346 13.90576 6.71875
-17.386499 13.90576 6.40625
-17.386499 13.90576 6.71875
-17.386499 13.90576 6.40625
-17.386499 13.90576 6.71875
-18.723923 13.90576 7.1875
-20.061346 13.90576 7.03125
-20.061346 13.90576 7.34375
-20.061346 13.90576 7.03125
-20.061346 13.90576 7.34375
-17.386499 13.90576 7.03125
-17.386499 13.90576 7.34375
-17.386499 13.90576 7.03125
-17.386499 13.90576 7.34375
-9.1228476 4.0003629 6.5625
-9.2387953 3.826834 6.40625
-9.2387953 3.826834 6.71875
-9.1228476 4.0003629 7.1875
-9.2387953 3.826834 7.03125
-9.2387953 3.826834 7.34375
-13.374229 13.90576 6.5625
-14.711653 13.90576 6.40625
-14.711653 13.90576 6.71875
-14.711653 13.90576 6.40625
-14.711653 13.90576 6.71875
-12.036806 13.90576 6.40625
-12.036806 13.90576 6.71875
-12.036806 13.90576 6.40625
-12.036806 13.90576 6.71875
-13.374229 13.90576 7.1875
-14.711653 13.90576 7.03125
-14.711653 13.90576 7.34375
-14.711653 13.90576 7.03125
-14.711653 13.90576 7.34375
-12.036806 13.90576 7.03125
-12.036806 13.90576 7.34375
-12.036806 13.90576 7.03125
-12.036806 13.90576 7.34375
-18.723923 13.90576 5.3125
-20.061346 13.90576 5.15625
-20.061346 13.90576 5.46875
-17.386499 13.90576 5.15625
-17.386499 13.90576 5.46875
-18.723923 13.90576 5.9375
-20.061346 13.90576 5.78125
-20.061346 13.90576 6.09375
-17.386499 13.90576 5.78125
-17.386499 13.90576 6.09375
-13.374229 13.90576 5.3125
-14.711653 13.90576 5.15625
-14.711653 13.90576 5.46875
-12.036806 13.90576 5.15625
-12.036806 13.90576 5.46875
-8.9996557 17.301903 5.15625
-8.9996557 17.301903 5.46875
-13.374229 13.90576 5.9375
-14.711653 13.90576 5.78125
-14.711653 13.90576 6.09375
-12.036806 13.90576 5.78125
-12.036806 13.90576 6.09375
-8.9996557 17.301903 5.78125
-8.9996557 17.301903 6.09375
-8.0059052 20.360353 5.3125
-8.0059052 20.360353 5.9375
-18.723923 13.90576 6.5625
-20.061346 13.90576 6.40625
-20.061346 13.90576 6.71875
-17.386499 13.90576 6.40625
-17.386499 13.90576 6.71875
-18.723923 13.90576 7.1875
-20.061346 13.90576 7.03125
-20.061346 13.90576 7.34375
-17.386499 13.90576 7.03125
-17.386499 13.90576 7.34375
-13.374229 13.90576 6.5625
-14.711653 13.90576 6.40625
-14.711653 13.90576 6.71875
-12.036806 13.90576 6.40625
-12.036806 13.90576 6.71875
-8.9996557 17.301903 6.40625
-8.9996557 17.301903 6.71875
-13.374229 13.90576 7.1875
-14.711653 13.90576 7.03125
-14.711653 13.90576 7.34375
-12.036806 13.90576 7.03125
-12.036806 13.90576 7.34375
-8.9996557 17.301903 7.03125
-8.9996557 17.301903 7.34375
-8.0059052 20.360353 6.5625
-8.0059052 20.360353 7.1875
-7.471621 6.4715981 5.3125
-8.4719992 4.9744258 5.15625
-8.4719992 4.9744258 5.46875
-7.2968559 6.733151 5.15625
-7.2968559 6.733151 5.46875
-7.6463861 6.2100449 5.15625
-7.6463861 6.2100449 5.46875
-6.3243098 7.570035 5.15625
-6.3243098 7.570035 5.46875
-7.471621 6.4715981 5.9375
-8.4719992 4.9744258 5.78125
-8.4719992 4.9744258 6.09375
-7.2968559 6.733151 5.78125
-7.2968559 6.733151 6.09375
-7.6463861 6.2100449 5.78125
-7.6463861 6.2100449 6.09375
-6.3243098 7.570035 5.78125
-6.3243098 7.570035 6.09375
-10.10313 13.90576 5.3125
-10.10313 13.90576 5.15625
-10.10313 13.90576 5.46875
-10.10313 13.90576 5.15625
-10.10313 13.90576 5.46875
-5.1491671 8.3552389 5.15625
-5.1491671 8.3552389 5.46875
-9.9840908 14.272123 5.15625
-9.9840908 14.272123 5.46875
-10.10313 13.90576 5.9375
-10.10313 13.90576 5.78125
-10.10313 13.90576 6.09375
-10.10313 13.90576 5.78125
-10.10313 13.90576 6.09375
-5.1491671 8.3552389 5.78125
-5.1491671 8.3552389 6.09375
-9.9840908 14.272123 5.78125
-9.9840908 14.272123 6.09375
-3.1774809 9.36796 5.3125
-5.6502199 8.0204477 5.15625
-5.6502199 8.0204477 5.46875
-4.4750781 8.8056526 5.15625
-4.4750781 8.8056526 5.46875
-1.64758 9.6722755 5.15625
-1.64758 9.6722755 5.46875
-3.1774809 9.36796 5.9375
-5.6502199 8.0204477 5.78125
-5.6502199 8.0204477 6.09375
-4.4750781 8.8056526 5.78125
-4.4750781 8.8056526 6.09375
-1.64758 9.6722755 5.78125
-1.64758 9.6722755 6.09375
-2.2039609 9.5616035 5.3125
-3.733861 9.2572889 5.15625
-3.733861 9.2572889 5.46875
-1.16082 9.7690983 5.15625
-1.16082 9.7690983 5.46875
-0.67405999 9.8659201 5.15625
-0.67405999 9.8659201 5.46875
-2.2039609 9.5616035 5.9375
-3.733861 9.2572889 5.78125
-3.733861 9.2572889 6.09375
-1.16082 9.7690983 5.78125
-1.16082 9.7690983 6.09375
-0.67405999 9.8659201 5.78125
-0.67405999 9.8659201 6.09375
-7.471621 6.4715981 6.5625
-8.4719992 4.9744258 6.40625
-8.4719992 4.9744258 6.71875
-7.2968559 6.733151 6.40625
-7.2968559 6.733151 6.71875
-7.6463861 6.2100449 6.40625
-7.6463861 6.2100449 6.71875
-6.3243098 7.570035 6.40625
-6.3243098 7.570035 6.71875
-7.471621 6.4715981 7.1875
-8.4719992 4.9744258 7.03125
-8.4719992 4.9744258 7.34375
-7.2968559 6.733151 7.03125
-7.2968559 6.733151 7.34375
-7.6463861 6.2100449 7.03125
-7.6463861 6.2100449 7.34375
-6.3243098 7.570035 7.03125
-6.3243098 7.570035 7.34375
-10.10313 13.90576 6.5625
-10.10313 13.90576 6.40625
-10.10313 13.90576 6.71875
-10.10313 13.90576 6.40625
-10.10313 13.90576 6.71875
-5.1491671 8.3552389 6.40625
-5.1491671 8.3552389 6.71875
-9.9840908 14.272123 6.40625
-9.9840908 14.272123 6.71875
-10.10313 13.90576 7.1875
-10.10313 13.90576 7.03125
-10.10313 13.90576 7.34375
-10.10313 13.90576 7.03125
-10.10313 13.90576 7.34375
-5.1491671 8.3552389 7.03125
-5.1491671 8.3552389 7.34375
-9.9840908 14.272123 7.03125
-9.9840908 14.272123 7.34375
-3.1774809 9.36796 6.5625
-5.6502199 8.0204477 6.40625
-5.6502199 8.0204477 6.71875
-4.4750781 8.8056526 6.40625
-4.4750781 8.8056526 6.71875
-1.64758 9.6722755 6.40625
-1.64758 9.6722755 6.71875
-3.1774809 9.36796 7.1875
-5.6502199 8.0204477 7.03125
-5.6502199 8.0204477 7.34375
-4.4750781 8.8056526 7.03125
-4.4750781 8.8056526 7.34375
-1.64758 9.6722755 7.03125
-1.64758 9.6722755 7.34375
-2.2039609 9.5616035 6.5625
-3.733861 9.2572889 6.40625
-3.733861 9.2572889 6.71875
-1.16082 9.7690983 6.40625
-1.16082 9.7690983 6.71875
-0.67405999 9.8659201 6.40625
-0.67405999 9.8659201 6.71875
-2.2039609 9.5616035 7.1875
-3.733861 9.2572889 7.03125
-3.733861 9.2572889 7.34375
-1.16082 9.7690983 7.03125
-1.16082 9.7690983 7.34375
-0.67405999 9.8659201 7.03125
-0.67405999 9.8659201 7.34375
-8.9903402 17.330576 5.3125
-9.4918747 15.787014 5.15625
-9.4918747 15.787014 5.46875
-8.7442322 18.08802 5.15625
-8.7442322 18.08802 5.46875
-9.2364492 16.573132 5.15625
-9.2364492 16.573132 5.46875
-8.4888067 18.874138 5.15625
-8.4888067 18.874138 5.46875
-8.9903402 17.330576 5.9375
-9.4918747 15.787014 5.78125
-9.4918747 15.787014 6.09375
-8.7442322 18.08802 5.78125
-8.7442322 18.08802 6.09375
-9.2364492 16.573132 5.78125
-9.2364492 16.573132 6.09375
-8.4888067 18.874138 5.78125
-8.4888067 18.874138 6.09375
-7.4950562 21.932589 5.3125
-7.9965901 20.389027 5.15625
-7.9965901 20.389027 5.46875
-7.2489481 22.690033 5.15625
-7.2489481 22.690033 5.46875
-7.7411652 21.175144 5.15625
-7.7411652 21.175144 5.46875
-6.9935222 23.476151 5.15625
-6.9935222 23.476151 5.46875
-7.4950562 21.932589 5.9375
-7.9965901 20.389027 5.78125
-7.9965901 20.389027 6.09375
-7.2489481 22.690033 5.78125
-7.2489481 22.690033 6.09375
-7.7411652 21.175144 5.78125
-7.7411652 21.175144 6.09375
-6.9935222 23.476151 5.78125
-6.9935222 23.476151 6.09375
-2.6748459 17.016768 0
-2.6748459 17.016768 0
-6.9842048 23.504824 5.3125
-7.4857392 21.961262 5.15625
-7.4857392 21.961262 5.46875
-6.7380972 24.262268 5.15625
-6.7380972 24.262268 5.46875
-6.9842048 23.504824 5.9375
-7.4857392 21.961262 5.78125
-7.4857392 21.961262 6.09375
-6.7380972 24.262268 5.78125
-6.7380972 24.262268 6.09375
-8.9903402 17.330576 6.5625
-9.4918747 15.787014 6.40625
-9.4918747 15.787014 6.71875
-8.7442322 18.08802 6.40625
-8.7442322 18.08802 6.71875
-9.2364492 16.573132 6.40625
-9.2364492 16.573132 6.71875
-8.4888067 18.874138 6.40625
-8.4888067 18.874138 6.71875
-8.9903402 17.330576 7.1875
-9.4918747 15.787014 7.03125
-9.4918747 15.787014 7.34375
-8.7442322 18.08802 7.03125
-8.7442322 18.08802 7.34375
-9.2364492 16.573132 7.03125
-9.2364492 16.573132 7.34375
-8.4888067 18.874138 7.03125
-8.4888067 18.874138 7.34375
-7.4950562 21.932589 6.5625
-7.9965901 20.389027 6.40625
-7.9965901 20.389027 6.71875
-7.2489481 22.690033 6.40625
-7.2489481 22.690033 6.71875
-7.7411652 21.175144 6.40625
-7.7411652 21.175144 6.71875
-6.9935222 23.476151 6.40625
-6.9935222 23.476151 6.71875
-7.4950562 21.932589 7.1875
-7.9965901 20.389027 7.03125
-7.9965901 20.389027 7.34375
-7.2489481 22.690033 7.03125
-7.2489481 22.690033 7.34375
-7.7411652 21.175144 7.03125
-7.7411652 21.175144 7.34375
-6.9935222 23.476151 7.03125
-6.9935222 23.476151 7.34375
-8.4794903 18.902811 6.5625
-8.4794903 18.902811 7.1875
-6.9842048 23.504824 6.5625
-7.4857392 21.961262 6.40625
-7.4857392 21.961262 6.71875
-6.7380972 24.262268 6.40625
-6.7380972 24.262268 6.71875
-6.9842048 23.504824 7.1875
-7.4857392 21.961262 7.03125
-7.4857392 21.961262 7.34375
-6.7380972 24.262268 7.03125
-6.7380972 24.262268 7.34375
-18.723923 13.90576 7.8125
-18.723923 13.90576 8.4375
-18.723923 13.90576 7.8125
-20.061346 13.90576 7.65625
-20.061346 13.90576 7.96875
-20.061346 13.90576 7.65625
-20.061346 13.90576 7.96875
-17.386499 13.90576 7.65625
-17.386499 13.90576 7.96875
-17.386499 13.90576 7.65625
-17.386499 13.90576 7.96875
-18.723923 13.90576 8.4375
-20.061346 13.90576 8.28125
-20.061346 13.90576 8.59375
-20.061346 13.90576 8.28125
-20.061346 13.90576 8.59375
-17.386499 13.90576 8.28125
-17.386499 13.90576 8.59375
-17.386499 13.90576 8.28125
-17.386499 13.90576 8.59375
-9.1228476 4.0003629 7.8125
-9.2387953 3.826834 7.65625
-9.2387953 3.826834 7.96875
-9.1228476 4.0003629 8.4375
-9.2387953 3.826834 8.28125
-9.2387953 3.826834 8.59375
-13.374229 13.90576 7.8125
-14.711653 13.90576 7.65625
-14.711653 13.90576 7.96875
-14.711653 13.90576 7.65625
-14.711653 13.90576 7.96875
-12.036806 13.90576 7.65625
-12.036806 13.90576 7.96875
-12.036806 13.90576 7.65625
-12.036806 13.90576 7.96875
-13.374229 13.90576 8.4375
-14.711653 13.90576 8.28125
-14.711653 13.90576 8.59375
-14.711653 13.90576 8.28125
-14.711653 13.90576 8.59375
-12.036806 13.90576 8.28125
-12.036806 13.90576 8.59375
-12.036806 13.90576 8.28125
-12.036806 13.90576 8.59375
-18.723923 13.90576 9.0625
-18.723923 13.90576 9.6875
-18.723923 13.90576 9.0625
-20.061346 13.90576 8.90625
-20.061346 13.90576 9.21875
-20.061346 13.90576 8.90625
-20.061346 13.90576 9.21875
-17.386499 13.90576 8.90625
-17.386499 13.90576 9.21875
-17.386499 13.90576 8.90625
-17.386499 13.90576 9.21875
-18.723923 13.90576 9.6875
-20.061346 13.90576 9.53125
-20.061346 13.90576 9.84375
-20.061346 13.90576 9.53125
-20.061346 13.90576 9.84375
-17.386499 13.90576 9.53125
-17.386499 13.90576 9.84375
-17.386499 13.90576 9.53125
-17.386499 13.90576 9.84375
-9.1228476 4.0003629 9.0625
-9.2387953 3.826834 8.90625
-9.2387953 3.826834 9.21875
-9.1228476 4.0003629 9.6875
-9.2387953 3.826834 9.53125
-9.2387953 3.826834 9.84375
-13.374229 13.90576 9.0625
-14.711653 13.90576 8.90625
-14.711653 13.90576 9.21875
-14.711653 13.90576 8.90625
-14.711653 13.90576 9.21875
-12.036806 13.90576 8.90625
-12.036806 13.90576 9.21875
-12.036806 13.90576 8.90625
-12.036806 13.90576 9.21875
-13.374229 13.90576 9.6875
-14.711653 13.90576 9.53125
-14.711653 13.90576 9.84375
-14.711653 13.90576 9.53125
-14.711653 13.90576 9.84375
-12.036806 13.90576 9.53125
-12.036806 13.90576 9.84375
-12.036806 13.90576 9.53125
-12.036806 13.90576 9.84375
-18.723923 13.90576 7.8125
-20.061346 13.90576 7.65625
-20.061346 13.90576 7.96875
-17.386499 13.90576 7.65625
-17.386499 13.90576 7.96875
-18.723923 13.90576 8.4375
-20.061346 13.90576 8.28125
-20.061346 13.90576 8.59375
-17.386499 13.90576 8.28125
-17.386499 13.90576 8.59375
-13.374229 13.90576 7.8125
-14.711653 13.90576 7.65625
-14.711653 13.90576 7.96875
-12.036806 13.90576 7.65625
-12.036806 13.90576 7.96875
-8.9996557 17.301903 7.65625
-8.9996557 17.301903 7.96875
-13.374229 13.90576 8.4375
-14.711653 13.90576 8.28125
-14.711653 13.90576 8.59375
-12.036806 13.90576 8.28125
-12.036806 13.90576 8.59375
-8.9996557 17.301903 8.28125
-8.9996557 17.301903 8.59375
-8.0059052 20.360353 7.8125
-8.0059052 20.360353 8.4375
-18.723923 13.90576 9.0625
-20.061346 13.90576 8.90625
-20.061346 13.90576 9.21875
-17.386499 13.90576 8.90625
-17.386499 13.90576 9.21875
-18.723923 13.90576 9.6875
-20.061346 13.90576 9.53125
-20.061346 13.90576 9.84375
-17.386499 13.90576 9.53125
-17.386499 13.90576 9.84375
-13.374229 13.90576 9.0625
-14.711653 13.90576 8.90625
-14.711653 13.90576 9.21875
-12.036806 13.90576 8.90625
-12.036806 13.90576 9.21875
-8.9996557 17.301903 8.90625
-8.9996557 17.301903 9.21875
-13.374229 13.90576 9.6875
-14.711653 13.90576 9.53125
-14.711653 13.90576 9.84375
-12.036806 13.90576 9.53125
-12.036806 13.90576 9.84375
-8.9996557 17.301903 9.53125
-8.9996557 17.301903 9.84375
-8.0059052 20.360353 9.0625
-8.0059052 20.360353 9.6875
-7.471621 6.4715981 7.8125
-8.4719992 4.9744258 7.65625
-8.4719992 4.9744258 7.96875
-7.2968559 6.733151 7.65625
-7.2968559 6.733151 7.96875
-7.6463861 6.2100449 7.65625
-7.6463861 6.2100449 7.96875
-6.3243098 7.570035 7.65625
-6.3243098 7.570035 7.96875
-7.471621 6.4715981 8.4375
-8.4719992 4.9744258 8.28125
-8.4719992 4.9744258 8.59375
-7.2968559 6.733151 8.28125
-7.2968559 6.733151 8.59375
-7.6463861 6.2100449 8.28125
-7.6463861 6.2100449 8.59375
-6.3243098 7.570035 8.28125
-6.3243098 7.570035 8.59375
-10.10313 13.90576 7.8125
-10.10313 13.90576 7.65625
-10.10313 13.90576 7.96875
-10.10313 13.90576 7.65625
-10.10313 13.90576 7.96875
-5.1491671 8.3552389 7.65625
-5.1491671 8.3552389 7.96875
-9.9840908 14.272123 7.65625
-9.9840908 14.272123 7.96875
-10.10313 13.90576 8.4375
-10.10313 13.90576 8.28125
-10.10313 13.90576 8.59375
-10.10313 13.90576 8.28125
-10.10313 13.90576 8.59375
-5.1491671 8.3552389 8.28125
-5.1491671 8.3552389 8.59375
-9.9840908 14.272123 8.28125
-9.9840908 14.272123 8.59375
-3.1774809 9.36796 7.8125
-5.6502199 8.0204477 7.65625
-5.6502199 8.0204477 7.96875
-4.4750781 8.8056526 7.65625
-4.4750781 8.8056526 7.96875
-1.64758 9.6722755 7.65625
-1.64758 9.6722755 7.96875
-3.1774809 9.36796 8.4375
-5.6502199 8.0204477 8.28125
-5.6502199 8.0204477 8.59375
-4.4750781 8.8056526 8.28125
-4.4750781 8.8056526 8.59375
-1.64758 9.6722755 8.28125
-1.64758 9.6722755 8.59375
-2.2039609 9.5616035 7.8125
-3.733861 9.2572889 7.65625
-3.733861 9.2572889 7.96875
-1.16082 9.7690983 7.65625
-1.16082 9.7690983 7.96875
-0.67405999 9.8659201 7.65625
-0.67405999 9.8659201 7.96875
-2.2039609 9.5616035 8.4375
-3.733861 9.2572889 8.28125
-3.733861 9.2572889 8.59375
-1.16082 9.7690983 8.28125
-1.16082 9.7690983 8.59375
-0.67405999 9.8659201 8.28125
-0.67405999 9.8659201 8.59375
-7.471621 6.4715981 9.0625
-8.4719992 4.9744258 8.90625
-8.4719992 4.9744258 9.21875
-7.2968559 6.733151 8.90625
-7.2968559 6.733151 9.21875
-7.6463861 6.2100449 8.90625
-7.6463861 6.2100449 9.21875
-6.3243098 7.570035 8.90625
-6.3243098 7.570035 9.21875
-7.471621 6.4715981 9.6875
-8.4719992 4.9744258 9.53125
-8.4719992 4.9744258 9.84375
-7.2968559 6.733151 9.53125
-7.2968559 6.733151 9.84375
-7.6463861 6.2100449 9.53125
-7.6463861 6.2100449 9.84375
-6.3243098 7.570035 9.53125
-6.3243098 7.570035 9.84375
-10.10313 13.90576 9.0625
-10.10313 13.90576 8.90625
-10.10313 13.90576 9.21875
-10.10313 13.90576 8.90625
-10.10313 13.90576 9.21875
-5.1491671 8.3552389 8.90625
-5.1491671 8.3552389 9.21875
-9.9840908 14.272123 8.90625
-9.9840908 14.272123 9.21875
-10.10313 13.90576 9.6875
-10.10313 13.90576 9.53125
-10.10313 13.90576 9.84375
-10.10313 13.90576 9.53125
-10.10313 13.90576 9.84375
-5.1491671 8.3552389 9.53125
-5.1491671 8.3552389 9.84375
-9.9840908 14.272123 9.53125
-9.9840908 14.272123 9.84375
-3.1774809 9.36796 9.0625
-5.6502199 8.0204477 8.90625
-5.6502199 8.0204477 9.21875
-4.4750781 8.8056526 8.90625
-4.4750781 8.8056526 9.21875
-1.64758 9.6722755 8.90625
-1.64758 9.6722755 9.21875
-3.1774809 9.36796 9.6875
-5.6502199 8.0204477 9.53125
-5.6502199 8.0204477 9.84375
-4.4750781 8.8056526 9.53125
-4.4750781 8.8056526 9.84375
-1.64758 9.6722755 9.53125
-1.64758 9.6722755 9.84375
-2.2039609 9.5616035 9.0625
-3.733861 9.2572889 8.90625
-3.733861 9.2572889 9.21875
-1.16082 9.7690983 8.90625
-1.16082 9.7690983 9.21875
-0.67405999 9.8659201 8.90625
-0.67405999 9.8659201 9.21875
-2.2039609 9.5616035 9.6875
-3.733861 9.2572889 9.53125
-3.733861 9.2572889 9.84375
-1.16082 9.7690983 9.53125
-1.16082 9.7690983 9.84375
-0.67405999 9.8659201 9.53125
-0.67405999 9.8659201 9.84375
-8.9903402 17.330576 7.8125
-9.4918747 15.787014 7.65625
-9.4918747 15.787014 7.96875
-8.7442322 18.08802 7.65625
-8.7442322 18.08802 7.96875
-9.2364492 16.573132 7.65625
-9.2364492 16.573132 7.96875
-8.4888067 18.874138 7.65625
-8.4888067 18.874138 7.96875
-8.9903402 17.330576 8.4375
-9.4918747 15.787014 8.28125
-9.4918747 15.787014 8.59375
-8.7442322 18.08802 8.28125
-8.7442322 18.08802 8.59375
-9.2364492 16.573132 8.28125
-9.2364492 16.573132 8.59375
-8.4888067 18.874138 8.28125
-8.4888067 18.874138 8.59375
-7.4950562 21.932589 7.8125
-7.9965901 20.389027 7.65625
-7.9965901 20.389027 7.96875
-7.2489481 22.690033 7.65625
-7.2489481 22.690033 7.96875
-7.7411652 21.175144 7.65625
-7.7411652 21.175144 7.96875
-6.9935222 23.476151 7.65625
-6.9935222 23.476151 7.96875
-7.4950562 21.932589 8.4375
-7.9965901 20.389027 8.28125
-7.9965901 20.389027 8.59375
-7.2489481 22.690033 8.28125
-7.2489481 22.690033 8.59375
-7.7411652 21.175144 8.28125
-7.7411652 21.175144 8.59375
-6.9935222 23.476151 8.28125
-6.9935222 23.476151 8.59375
-8.4794903 18.902811 7.8125
-8.4794903 18.902811 8.4375
-6.9842048 23.504824 7.8125
-7.4857392 21.961262 7.65625
-7.4857392 21.961262 7.96875
-6.7380972 24.262268 7.65625
-6.7380972 24.262268 7.96875
-6.9842048 23.504824 8.4375
-7.4857392 21.961262 8.28125
-7.4857392 21.961262 8.59375
-6.7380972 24.262268 8.28125
-6.7380972 24.262268 8.59375
-8.9903402 17.330576 9.0625
-9.4918747 15.787014 8.90625
-9.4918747 15.787014 9.21875
-8.7442322 18.08802 8.90625
-8.7442322 18.08802 9.21875
-9.2364492 16.573132 8.90625
-9.2364492 16.573132 9.21875
-8.4888067 18.874138 8.90625
-8.4888067 18.874138 9.21875
-8.9903402 17.330576 9.6875
-9.4918747 15.787014 9.53125
-9.4918747 15.787014 9.84375
-8.7442322 18.08802 9.53125
-8.7442322 18.08802 9.84375
-9.2364492 16.573132 9.53125
-9.2364492 16.573132 9.84375
-8.4888067 18.874138 9.53125
-8.4888067 18.874138 9.84375
-7.4950562 21.932589 9.0625
-7.9965901 20.389027 8.90625
-7.9965901 20.389027 9.21875
-7.2489481 22.690033 8.90625
-7.2489481 22.690033 9.21875
-7.7411652 21.175144 8.90625
-7.7411652 21.175144 9.21875
-6.9935222 23.476151 8.90625
-6.9935222 23.476151 9.21875
-7.4950562 21.932589 9.6875
-7.9965901 20.389027 9.53125
-7.9965901 20.389027 9.84375
-7.2489481 22.690033 9.53125
-7.2489481 22.690033 9.84375
-7.7411652 21.175144 9.53125
-7.7411652 21.175144 9.84375
-6.9935222 23.476151 9.53125
-6.9935222 23.476151 9.84375
-8.4794903 18.902811 9.0625
-8.4794903 18.902811 9.6875
-6.9842048 23.504824 9.0625
-7.4857392 21.961262 8.90625
-7.4857392 21.961262 9.21875
-6.7380972 24.262268 8.90625
-6.7380972 24.262268 9.21875
-6.9842048 23.504824 9.6875
-7.4857392 21.961262 9.53125
-7.4857392 21.961262 9.84375
-6.7380972 24.262268 9.53125
-6.7380972 24.262268 9.84375
-6.5106201 24.962368 5.3125
-6.5106201 24.962368 5.9375
-6.5106201 24.962368 6.5625
-6.5106201 24.962368 7.1875
-5.9997721 26.534603 5.3125
-6.5013061 24.991041 5.15625
-6.5013061 24.991041 5.46875
-6.2458792 25.777159 5.15625
-6.2458792 25.777159 5.46875
-5.4982371 28.078165 5.15625
-5.4982371 28.078165 5.46875
-5.9997721 26.534603 5.9375
-6.5013061 24.991041 5.78125
-6.5013061 24.991041 6.09375
-6.2458792 25.777159 5.78125
-6.2458792 25.777159 6.09375
-5.4982371 28.078165 5.78125
-5.4982371 28.078165 6.09375
-4.504487 31.136616 5.3125
-4.7505951 30.379171 5.15625
-4.7505951 30.379171 5.46875
-4.002954 32.68018 5.15625
-4.002954 32.68018 5.46875
-4.504487 31.136616 5.9375
-4.7505951 30.379171 5.78125
-4.7505951 30.379171 6.09375
-4.002954 32.68018 5.78125
-4.002954 32.68018 6.09375
-5.4889202 28.106838 5.3125
-5.9904542 26.563276 5.15625
-5.9904542 26.563276 5.46875
-5.2428122 28.864283 5.15625
-5.2428122 28.864283 5.46875
-5.4889202 28.106838 5.9375
-5.9904542 26.563276 5.78125
-5.9904542 26.563276 6.09375
-5.2428122 28.864283 5.78125
-5.2428122 28.864283 6.09375
-3.9936359 32.708851 5.3125
-4.4951692 31.165289 5.15625
-4.4951692 31.165289 5.46875
-3.7475269 33.466293 5.15625
-3.7475269 33.466293 5.46875
-4.2397451 31.951406 5.15625
-4.2397451 31.951406 5.46875
-3.4921031 34.252411 5.15625
-3.4921031 34.252411 5.46875
-3.9936359 32.708851 5.9375
-4.4951692 31.165289 5.78125
-4.4951692 31.165289 6.09375
-3.7475269 33.466293 5.78125
-3.7475269 33.466293 6.09375
-4.2397451 31.951406 5.78125
-4.2397451 31.951406 6.09375
-3.4921031 34.252411 5.78125
-3.4921031 34.252411 6.09375
-5.9997721 26.534603 6.5625
-6.5013061 24.991041 6.40625
-6.5013061 24.991041 6.71875
-6.2458792 25.777159 6.40625
-6.2458792 25.777159 6.71875
-5.4982371 28.078165 6.40625
-5.4982371 28.078165 6.71875
-5.9997721 26.534603 7.1875
-6.5013061 24.991041 7.03125
-6.5013061 24.991041 7.34375
-6.2458792 25.777159 7.03125
-6.2458792 25.777159 7.34375
-5.4982371 28.078165 7.03125
-5.4982371 28.078165 7.34375
-4.504487 31.136616 6.5625
-4.7505951 30.379171 6.40625
-4.7505951 30.379171 6.71875
-4.002954 32.68018 6.40625
-4.002954 32.68018 6.71875
-4.504487 31.136616 7.1875
-4.7505951 30.379171 7.03125
-4.7505951 30.379171 7.34375
-4.002954 32.68018 7.03125
-4.002954 32.68018 7.34375
-5.4889202 28.106838 6.5625
-5.9904542 26.563276 6.40625
-5.9904542 26.563276 6.71875
-5.2428122 28.864283 6.40625
-5.2428122 28.864283 6.71875
-5.4889202 28.106838 7.1875
-5.9904542 26.563276 7.03125
-5.9904542 26.563276 7.34375
-5.2428122 28.864283 7.03125
-5.2428122 28.864283 7.34375
-3.9936359 32.708851 6.5625
-4.4951692 31.165289 6.40625
-4.4951692 31.165289 6.71875
-3.7475269 33.466293 6.40625
-3.7475269 33.466293 6.71875
-4.2397451 31.951406 6.40625
-4.2397451 31.951406 6.71875
-3.4921031 34.252411 6.40625
-3.4921031 34.252411 6.71875
-3.9936359 32.708851 7.1875
-4.4951692 31.165289 7.03125
-4.4951692 31.165289 7.34375
-3.7475269 33.466293 7.03125
-3.7475269 33.466293 7.34375
-4.2397451 31.951406 7.03125
-4.2397451 31.951406 7.34375
-3.4921031 34.252411 7.03125
-3.4921031 34.252411 7.34375
-3.009202 35.738628 5.3125
-3.255311 34.981186 5.15625
-3.255311 34.981186 5.46875
-3.009202 35.738628 5.9375
-3.255311 34.981186 5.78125
-3.255311 34.981186 6.09375
-1.513918 40.340641 5.3125
-1.513918 40.340641 5.9375
-2.4983521 37.310863 5.3125
-2.9998851 35.7673 5.15625
-2.9998851 35.7673 5.46875
-2.252243 38.068306 5.15625
-2.252243 38.068306 5.46875
-2.7444601 36.553417 5.15625
-2.7444601 36.553417 5.46875
-1.9968179 38.854424 5.15625
-1.9968179 38.854424 5.46875
-2.4983521 37.310863 5.9375
-2.9998851 35.7673 5.78125
-2.9998851 35.7673 6.09375
-2.252243 38.068306 5.78125
-2.252243 38.068306 6.09375
-2.7444601 36.553417 5.78125
-2.7444601 36.553417 6.09375
-1.9968179 38.854424 5.78125
-1.9968179 38.854424 6.09375
-1.003067 41.912876 5.3125
-1.504601 40.369312 5.15625
-1.504601 40.369312 5.46875
-0.75695801 42.670319 5.15625
-0.75695801 42.670319 5.46875
-1.249176 41.15543 5.15625
-1.249176 41.15543 5.46875
-0.50153399 43.456436 5.15625
-0.50153399 43.456436 5.46875
-1.003067 41.912876 5.9375
-1.504601 40.369312 5.78125
-1.504601 40.369312 6.09375
-0.75695801 42.670319 5.78125
-0.75695801 42.670319 6.09375
-1.249176 41.15543 5.78125
-1.249176 41.15543 6.09375
-0.50153399 43.456436 5.78125
-0.50153399 43.456436 6.09375
-3.009202 35.738628 6.5625
-3.255311 34.981186 6.40625
-3.255311 34.981186 6.71875
-3.009202 35.738628 7.1875
-3.255311 34.981186 7.03125
-3.255311 34.981186 7.34375
-1.513918 40.340641 6.5625
-1.513918 40.340641 7.1875
-2.4983521 37.310863 6.5625
-2.9998851 35.7673 6.40625
-2.9998851 35.7673 6.71875
-2.252243 38.068306 6.40625
-2.252243 38.068306 6.71875
-2.7444601 36.553417 6.40625
-2.7444601 36.553417 6.71875
-1.9968179 38.854424 6.40625
-1.9968179 38.854424 6.71875
-2.4983521 37.310863 7.1875
-2.999841 35.767437 7.0307798
-2.9998851 35.7673 7.34375
-2.252243 38.068306 7.03125
-2.252243 38.068306 7.34375
-2.7444601 36.553417 7.03125
-2.7444601 36.553417 7.34375
-1.9968179 38.854424 7.03125
-1.9968179 38.854424 7.34375
-1.003067 41.912876 6.5625
-1.504601 40.369312 6.40625
-1.504601 40.369312 6.71875
-0.75695801 42.670319 6.40625
-0.75695801 42.670319 6.71875
-1.249176 41.15543 6.40625
-1.249176 41.15543 6.71875
-0.50153399 43.456436 6.40625
-0.50153399 43.456436 6.71875
-1.003067 41.912876 7.1875
-1.504601 40.369312 7.03125
-1.504601 40.369312 7.34375
-0.75695801 42.670319 7.03125
-0.75695801 42.670319 7.34375
-1.249176 41.15543 7.03125
-1.249176 41.15543 7.34375
-0.50153399 43.456436 7.03125
-0.50153399 43.456436 7.34375
-6.5106201 24.962368 7.8125
-6.5106201 24.962368 8.4375
-6.5106201 24.962368 9.0625
-6.5106201 24.962368 9.6875
-5.9997721 26.534603 7.8125
-6.5013061 24.991041 7.65625
-6.5013061 24.991041 7.96875
-6.2458792 25.777159 7.65625
-6.2458792 25.777159 7.96875
-5.4982371 28.078165 7.65625
-5.4982371 28.078165 7.96875
-5.9997721 26.534603 8.4375
-6.5013061 24.991041 8.28125
-6.5013061 24.991041 8.59375
-6.2458792 25.777159 8.28125
-6.2458792 25.777159 8.59375
-5.4982371 28.078165 8.28125
-5.4982371 28.078165 8.59375
-4.504487 31.136616 7.8125
-4.7505951 30.379171 7.65625
-4.7505951 30.379171 7.96875
-4.002954 32.68018 7.65625
-4.002954 32.68018 7.96875
-4.504487 31.136616 8.4375
-4.7505951 30.379171 8.28125
-4.7505951 30.379171 8.59375
-4.002954 32.68018 8.28125
-4.002954 32.68018 8.59375
-5.4889202 28.106838 7.8125
-5.9904542 26.563276 7.65625
-5.9904542 26.563276 7.96875
-5.2428122 28.864283 7.65625
-5.2428122 28.864283 7.96875
-5.4889202 28.106838 8.4375
-5.9904542 26.563276 8.28125
-5.9904542 26.563276 8.59375
-5.2428122 28.864283 8.28125
-5.2428122 28.864283 8.59375
-3.9936359 32.708851 7.8125
-4.4951692 31.165289 7.65625
-4.4951692 31.165289 7.96875
-3.7475269 33.466293 7.65625
-3.7475269 33.466293 7.96875
-4.2397451 31.951406 7.65625
-4.2397451 31.951406 7.96875
-3.4921031 34.252411 7.65625
-3.4921031 34.252411 7.96875
-3.9936359 32.708851 8.4375
-4.4951692 31.165289 8.28125
-4.4951692 31.165289 8.59375
-3.7475269 33.466293 8.28125
-3.7475269 33.466293 8.59375
-4.2397451 31.951406 8.28125
-4.2397451 31.951406 8.59375
-3.4921031 34.252411 8.28125
-3.4921031 34.252411 8.59375
-5.9997721 26.534603 9.0625
-6.5013061 24.991041 8.90625
-6.5013061 24.991041 9.21875
-6.2458792 25.777159 8.90625
-6.2458792 25.777159 9.21875
-5.4982371 28.078165 8.90625
-5.4982371 28.078165 9.21875
-5.9997721 26.534603 9.6875
-6.5013061 24.991041 9.53125
-6.5013061 24.991041 9.84375
-6.2458792 25.777159 9.53125
-6.2458792 25.777159 9.84375
-5.4982371 28.078165 9.53125
-5.4982371 28.078165 9.84375
-4.504487 31.136616 9.0625
-4.7505951 30.379171 8.90625
-4.7505951 30.379171 9.21875
-4.002954 32.68018 8.90625
-4.002954 32.68018 9.21875
-4.504487 31.136616 9.6875
-4.7505951 30.379171 9.53125
-4.7505951 30.379171 9.84375
-4.002954 32.68018 9.53125
-4.002954 32.68018 9.84375
-5.4889202 28.106838 9.0625
-5.9904542 26.563276 8.90625
-5.9904542 26.563276 9.21875
-5.2428122 28.864283 8.90625
-5.2428122 28.864283 9.21875
-5.4889202 28.106838 9.6875
-5.9904542 26.563276 9.53125
-5.9904542 26.563276 9.84375
-5.2428122 28.864283 9.53125
-5.2428122 28.864283 9.84375
-3.9936359 32.708851 9.0625
-4.4951692 31.165289 8.90625
-4.4951692 31.165289 9.21875
-3.7475269 33.466293 8.90625
-3.7475269 33.466293 9.21875
-4.2397451 31.951406 8.90625
-4.2397451 31.951406 9.21875
-3.4921031 34.252411 8.90625
-3.4921031 34.252411 9.21875
-3.9936359 32.708851 9.6875
-4.4951692 31.165289 9.53125
-4.4951692 31.165289 9.84375
-3.7475269 33.466293 9.53125
-3.7475269 33.466293 9.84375
-4.2397451 31.951406 9.53125
-4.2397451 31.951406 9.84375
-3.4921031 34.252411 9.53125
-3.4921031 34.252411 9.84375
-3.009202 35.738628 7.8125
-3.255311 34.981186 7.65625
-3.255311 34.981186 7.96875
-3.009202 35.738628 8.4375
-3.255311 34.981186 8.28125
-3.255311 34.981186 8.59375
-1.513918 40.340641 7.8125
-1.513918 40.340641 8.4375
-2.4983521 37.310863 7.8125
-2.9998851 35.7673 7.65625
-2.9998851 35.7673 7.96875
-2.252243 38.068306 7.65625
-2.252243 38.068306 7.96875
-2.7444601 36.553417 7.65625
-2.7444601 36.553417 7.96875
-1.9968179 38.854424 7.65625
-1.9968179 38.854424 7.96875
-2.4983521 37.310863 8.4375
-2.9998851 35.7673 8.28125
-2.9998851 35.7673 8.59375
-2.252243 38.068306 8.28125
-2.252243 38.068306 8.59375
-2.7444601 36.553417 8.28125
-2.7444601 36.553417 8.59375
-1.9968179 38.854424 8.28125
-1.9968179 38.854424 8.59375
-1.003067 41.912876 7.8125
-1.504601 40.369312 7.65625
-1.504601 40.369312 7.96875
-0.75695801 42.670319 7.65625
-0.75695801 42.670319 7.96875
-1.249176 41.15543 7.65625
-1.249176 41.15543 7.96875
-0.50153399 43.456436 7.65625
-0.50153399 43.456436 7.96875
-1.003067 41.912876 8.4375
-1.504601 40.369312 8.28125
-1.504601 40.369312 8.59375
-0.75695801 42.670319 8.28125
-0.75695801 42.670319 8.59375
-1.249176 41.15543 8.28125
-1.249176 41.15543 8.59375
-0.50153399 43.456436 8.28125
-0.50153399 43.456436 8.59375
-3.009202 35.738628 9.0625
-3.255311 34.981186 8.90625
-3.255311 34.981186 9.21875
-3.009202 35.738628 9.6875
-3.255311 34.981186 9.53125
-3.255311 34.981186 9.84375
-1.513918 40.340641 9.0625
-1.513918 40.340641 9.6875
-2.4983521 37.310863 9.0625
-2.9998851 35.7673 8.90625
-2.9998851 35.7673 9.21875
-2.252243 38.068306 8.90625
-2.252243 38.068306 9.21875
-2.7444601 36.553417 8.90625
-2.7444601 36.553417 9.21875
-1.9968179 38.854424 8.90625
-1.9968179 38.854424 9.21875
-2.4983521 37.310863 9.6875
-2.9998851 35.7673 9.53125
-2.9998851 35.7673 9.84375
-2.252243 38.068306 9.53125
-2.252243 38.068306 9.84375
-2.7444601 36.553417 9.53125
-2.7444601 36.553417 9.84375
-1.9968179 38.854424 9.53125
-1.9968179 38.854424 9.84375
-1.003067 41.912876 9.0625
-1.504601 40.369312 8.90625
-1.504601 40.369312 9.21875
-0.75695801 42.670319 8.90625
-0.75695801 42.670319 9.21875
-1.249176 41.15543 8.90625
-1.249176 41.15543 9.21875
-0.50153399 43.456436 8.90625
-0.50153399 43.456436 9.21875
-1.003067 41.912876 9.6875
-1.504601 40.369312 9.53125
-1.504601 40.369312 9.84375
-0.75695801 42.670319 9.53125
-0.75695801 42.670319 9.84375
-1.249176 41.15543 9.53125
-1.249176 41.15543 9.84375
-0.50153399 43.456436 9.53125
-0.50153399 43.456436 9.84375
10.761365 -25.007061 0.3125
11.031865 -25.20359 0.15625
11.031865 -25.20359 0.46875
10.761365 -25.007061 0.9375
11.031865 -25.20359 0.78125
11.031865 -25.20359 1.09375
10.761365 -25.007061 1.5625
11.031865 -25.20359 1.40625
11.031865 -25.20359 1.71875
10.761365 -25.007061 2.1875
11.031865 -25.20359 2.03125
11.031865 -25.20359 2.34375
4.8405261 -20.705318 0.3125
3.3603151 -19.629883 0.15625
3.3603151 -19.629883 0.46875
5.1110239 -20.901848 0.15625
5.1110239 -20.901848 0.46875
4.8405261 -20.705318 0.9375
3.3603151 -19.629883 0.78125
3.3603151 -19.629883 1.09375
5.1110239 -20.901848 0.78125
5.1110239 -20.901848 1.09375
2.6748459 -18.598259 0
2.150604 -18.750977 0.15625
2.150604 -18.750977 0.46875
1.337423 -17.326294 0
1.337423 -17.326294 0
4.012269 -19.870224 0
3.901314 -20.022942 0.46875
4.012269 -17.326294 0
4.012269 -17.326294 0
2.421103 -18.947506 0.9375
2.150604 -18.750977 0.78125
2.150604 -18.750977 1.09375
0.94089299 -17.87207 0.78125
0.94089299 -17.87207 1.09375
3.901314 -20.022942 0.78125
3.901314 -20.022942 1.09375
4.012269 -17.326294 0
4.012269 -17.326294 0
8.3419437 -23.249249 0.3125
8.0714455 -23.052719 0.15625
8.0714455 -23.052719 0.46875
6.8617339 -22.173813 0.15625
6.8617339 -22.173813 0.46875
9.822154 -24.324684 0.15625
9.822154 -24.324684 0.46875
9.3619614 -22.414154 0
9.3619614 -22.414154 0
8.3419437 -23.249249 0.9375
8.0714455 -23.052719 0.78125
8.0714455 -23.052719 1.09375
6.8617339 -22.173813 0.78125
6.8617339 -22.173813 1.09375
9.822154 -24.324684 0.78125
9.822154 -24.324684 1.09375
9.3619614 -22.414154 0
9.3619614 -22.414154 0
8.024538 -18.598259 0
6.6871152 -19.870224 0
6.6871152 -19.870224 0
6.6871152 -17.326294 0
6.6871152 -17.326294 0
9.3619614 -19.870224 0
9.3619614 -19.870224 0
9.3619614 -17.326294 0
9.3619614 -17.326294 0
8.024538 -18.598259 0
6.6871152 -19.870224 0
6.6871152 -19.870224 0
6.6871152 -17.326294 0
6.6871152 -17.326294 0
9.3619614 -19.870224 0
9.3619614 -19.870224 0
9.3619614 -17.326294 0
9.3619614 -17.326294 0
4.8405261 -20.705318 1.5625
3.3603151 -19.629883 1.40625
3.3603151 -19.629883 1.71875
5.1110239 -20.901848 1.40625
5.1110239 -20.901848 1.71875
4.8405261 -20.705318 2.1875
3.3603151 -19.629883 2.03125
3.3603151 -19.629883 2.34375
5.1110239 -20.901848 2.03125
5.1110239 -20.901848 2.34375
2.421103 -18.947506 1.5625
2.150604 -18.750977 1.40625
2.150604 -18.750977 1.71875
0.94089299 -17.87207 1.40625
0.94089299 -17.87207 1.71875
3.901314 -20.022942 1.40625
3.901314 -20.022942 1.71875
4.012269 -17.326294 0
4.012269 -17.326294 0
2.421103 -18.947506 2.1875
2.150604 -18.750977 2.03125
2.150604 -18.750977 2.34375
0.94089299 -17.87207 2.03125
0.94089299 -17.87207 2.34375
3.901314 -20.022942 2.03125
3.901314 -20.022942 2.34375
4.012269 -17.326294 0
2.691602 -19.144035 2.34375
8.3419437 -23.249249 1.5625
8.0714455 -23.052719 1.40625
8.0714455 -23.052719 1.71875
6.8617339 -22.173813 1.40625
6.8617339 -22.173813 1.71875
9.822154 -24.324684 1.40625
9.822154 -24.324684 1.71875
8.612443 -23.445778 1.40625
8.612443 -23.445778 1.71875
8.3419437 -23.249249 2.1875
8.0714455 -23.052719 2.03125
8.0714455 -23.052719 2.34375
6.8617339 -22.173813 2.03125
6.8617339 -22.173813 2.34375
9.822154 -24.324684 2.03125
9.822154 -24.324684 2.34375
8.612443 -23.445778 2.03125
8.612443 -23.445778 2.34375
8.024538 -18.598259 0
6.6871152 -19.870224 0
6.6871152 -19.870224 0
6.6871152 -17.326294 0
6.6871152 -17.326294 0
9.3619614 -19.870224 0
9.3619614 -19.870224 0
9.3619614 -17.326294 0
9.3619614 -17.326294 0
8.024538 -18.598259 0
5.6520228 -21.294907 2.03125
5.6520228 -21.294907 2.34375
6.6871152 -17.326294 0
6.6871152 -17.326294 0
9.3619614 -19.870224 0
9.3619614 -19.870224 0
9.3619614 -17.326294 0
9.3619614 -17.326294 0
16.682205 -29.308804 0.3125
16.682205 -29.308804 0.9375
14.262784 -27.550989 0.3125
13.992285 -27.354462 0.15625
13.992285 -27.354462 0.46875
12.782574 -26.475555 0.15625
12.782574 -26.475555 0.46875
15.742993 -28.626425 0.15625
15.742993 -28.626425 0.46875
14.711653 -27.502014 0
14.533283 -27.747519 0.46875
14.262784 -27.550989 0.9375
13.992285 -27.354462 0.78125
13.992285 -27.354462 1.09375
12.782574 -26.475555 0.78125
12.782574 -26.475555 1.09375
15.742993 -28.626425 0.78125
15.742993 -28.626425 1.09375
14.533283 -27.747519 0.78125
14.533283 -27.747519 1.09375
20.183624 -31.852734 0.3125
18.703413 -30.777298 0.15625
18.703413 -30.777298 0.46875
21.663834 -32.928169 0.15625
21.663834 -32.928169 0.46875
20.454124 -32.049263 0.15625
20.454124 -32.049263 0.46875
20.183624 -31.852734 0.9375
18.703413 -30.777298 0.78125
18.703413 -30.777298 1.09375
21.663834 -32.928169 0.78125
21.663834 -32.928169 1.09375
20.454124 -32.049263 0.78125
20.454124 -32.049263 1.09375
18.723923 -28.773979 0
17.493702 -29.898392 0.15625
17.493702 -29.898392 0.46875
17.386499 -27.502014 0
17.386499 -27.502014 0
20.061346 -30.045944 0
20.061346 -30.045944 0
20.061346 -27.502014 0
20.061346 -27.502014 0
18.723923 -28.773979 0
17.493702 -29.898392 0.78125
17.493702 -29.898392 1.09375
17.386499 -27.502014 0
17.386499 -27.502014 0
20.061346 -30.045944 0
20.061346 -30.045944 0
20.061346 -27.502014 0
20.061346 -27.502014 0
16.682205 -29.308804 1.5625
16.682205 -29.308804 2.1875
14.262784 -27.550989 1.5625
13.992285 -27.354462 1.40625
13.992285 -27.354462 1.71875
12.782574 -26.475555 1.40625
12.782574 -26.475555 1.71875
15.742993 -28.626425 1.40625
15.742993 -28.626425 1.71875
14.533283 -27.747519 1.40625
14.533283 -27.747519 1.71875
14.262784 -27.550989 2.1875
13.992285 -27.354462 2.03125
13.992285 -27.354462 2.34375
12.782574 -26.475555 2.03125
12.782574 -26.475555 2.34375
15.742993 -28.626425 2.03125
15.742993 -28.626425 2.34375
14.533283 -27.747519 2.03125
14.533283 -27.747519 2.34375
20.183624 -31.852734 1.5625
18.703413 -30.777298 1.40625
18.703413 -30.777298 1.71875
21.663834 -32.928169 1.40625
21.663834 -32.928169 1.71875
20.454124 -32.049263 1.40625
20.454124 -32.049263 1.71875
20.183624 -31.852734 2.1875
18.703413 -30.777298 2.03125
18.703413 -30.777298 2.34375
21.663834 -32.928169 2.03125
21.663834 -32.928169 2.34375
20.454124 -32.049263 2.03125
20.454124 -32.049263 2.34375
18.723923 -28.773979 0
17.493702 -29.898392 1.40625
17.493702 -29.898392 1.71875
17.386499 -27.502014 0
17.386499 -27.502014 0
19.244413 -31.170357 1.40625
19.244413 -31.170357 1.71875
20.061346 -27.502014 0
20.061346 -27.502014 0
17.764202 -30.094921 2.1875
17.493702 -29.898392 2.03125
17.493702 -29.898392 2.34375
16.283993 -29.019485 2.03125
16.283993 -29.019485 2.34375
19.244413 -31.170357 2.03125
19.244413 -31.170357 2.34375
20.061346 -27.502014 0
20.061346 -27.502014 0
13.37423 -23.686119 0
12.036808 -24.958084 0
12.036808 -24.958084 0
12.036808 -22.414154 0
12.036808 -22.414154 0
14.711653 -24.958084 0
14.711653 -24.958084 0
14.711653 -22.414154 0
14.711653 -22.414154 0
13.37423 -23.686119 0
12.036808 -24.958084 0
11.572864 -25.596649 1.09375
12.036808 -22.414154 0
12.036808 -22.414154 0
14.711653 -24.958084 0
14.711653 -24.958084 0
14.711653 -22.414154 0
14.711653 -22.414154 0
13.37423 -18.598259 0
12.036808 -19.870224 0
12.036808 -19.870224 0
12.036808 -17.326294 0
12.036808 -17.326294 0
14.711653 -19.870224 0
14.711653 -19.870224 0
14.711653 -17.326294 0
14.711653 -17.326294 0
13.37423 -18.598259 0
12.036808 -19.870224 0
12.036808 -19.870224 0
12.036808 -17.326294 0
12.036808 -17.326294 0
14.711653 -19.870224 0
14.711653 -19.870224 0
14.711653 -17.326294 0
14.711653 -17.326294 0
18.723923 -23.686119 0
17.386499 -24.958084 0
17.386499 -24.958084 0
17.386499 -22.414154 0
17.386499 -22.414154 0
20.061346 -24.958084 0
20.061346 -24.958084 0
20.061346 -22.414154 0
20.061346 -22.414154 0
18.723923 -23.686119 0
17.386499 -24.958084 0
17.386499 -24.958084 0
17.386499 -22.414154 0
17.386499 -22.414154 0
20.061346 -24.958084 0
20.061346 -24.958084 0
20.061346 -22.414154 0
20.061346 -22.414154 0
18.723923 -18.598259 0
17.386499 -19.870224 0
17.386499 -19.870224 0
17.386499 -17.326294 0
17.386499 -17.326294 0
20.061346 -19.870224 0
20.061346 -19.870224 0
20.061346 -17.326294 0
20.232929 -17.270544 0.46875
18.723923 -18.598259 0
17.386499 -19.870224 0
17.386499 -19.870224 0
17.386499 -17.326294 0
17.386499 -17.326294 0
20.061346 -19.870224 0
20.980572 -19.57155 1.09375
20.232929 -17.270544 0.78125
20.232929 -17.270544 1.09375
13.37423 -23.686119 0
11.572864 -25.596649 1.40625
11.572864 -25.596649 1.71875
12.036808 -22.414154 0
12.036808 -22.414154 0
14.711653 -24.958084 0
14.711653 -24.958084 0
14.711653 -22.414154 0
14.711653 -22.414154 0
13.37423 -23.686119 0
11.572864 -25.596649 2.03125
11.572864 -25.596649 2.34375
12.036808 -22.414154 0
12.036808 -22.414154 0
14.711653 -24.958084 0
14.711653 -24.958084 0
14.711653 -22.414154 0
14.711653 -22.414154 0
13.37423 -18.598259 0
12.036808 -19.870224 0
12.036808 -19.870224 0
12.036808 -17.326294 0
12.036808 -17.326294 0
14.711653 -19.870224 0
14.711653 -19.870224 0
14.711653 -17.326294 0
14.711653 -17.326294 0
13.37423 -18.598259 0
12.036808 -19.870224 0
12.036808 -19.870224 0
12.036808 -17.326294 0
12.036808 -17.326294 0
14.711653 -19.870224 0
14.711653 -19.870224 0
14.711653 -17.326294 0
14.711653 -17.326294 0
18.723923 -23.686119 0
17.386499 -24.958084 0
17.386499 -24.958084 0
17.386499 -22.414154 0
17.386499 -22.414154 0
20.061346 -24.958084 0
20.061346 -24.958084 0
20.061346 -22.414154 0
20.061346 -22.414154 0
18.723923 -23.686119 0
17.386499 -24.958084 0
17.386499 -24.958084 0
17.386499 -22.414154 0
17.386499 -22.414154 0
20.061346 -24.958084 0
20.061346 -24.958084 0
21.728214 -21.872555 2.03125
21.728214 -21.872555 2.34375
18.723923 -18.598259 0
17.386499 -19.870224 0
17.386499 -19.870224 0
17.386499 -17.326294 0
17.386499 -17.326294 0
20.980572 -19.57155 1.40625
20.980572 -19.57155 1.71875
20.232929 -17.270544 1.40625
20.232929 -17.270544 1.71875
20.479038 -18.027988 2.1875
17.386499 -19.870224 0
17.386499 -19.870224 0
17.386499 -17.326294 0
17.386499 -17.326294 0
20.980572 -19.57155 2.03125
20.980572 -19.57155 2.34375
20.232929 -17.270544 2.03125
20.232929 -17.270544 2.34375
10.761365 -25.007061 2.8125
11.031865 -25.20359 2.65625
11.031865 -25.20359 2.96875
10.761365 -25.007061 3.4375
11.031865 -25.20359 3.28125
11.031865 -25.20359 3.59375
10.761365 -25.007061 4.0625
11.031865 -25.20359 3.90625
11.031865 -25.20359 4.21875
10.761365 -25.007061 4.6875
11.031865 -25.20359 4.53125
11.031865 -25.20359 4.84375
4.8405261 -20.705318 2.8125
3.3603151 -19.629883 2.65625
3.3603151 -19.629883 2.96875
5.1110239 -20.901848 2.65625
5.1110239 -20.901848 2.96875
4.8405261 -20.705318 3.4375
3.3603151 -19.629883 3.28125
3.3603151 -19.629883 3.59375
5.1110239 -20.901848 3.28125
5.1110239 -20.901848 3.59375
2.421103 -18.947506 2.8125
2.150604 -18.750977 2.65625
2.150604 -18.750977 2.96875
0.94089299 -17.87207 2.65625
0.94089299 -17.87207 2.96875
3.901314 -20.022942 2.65625
3.901314 -20.022942 2.96875
2.691602 -19.144035 2.65625
2.691602 -19.144035 2.96875
2.421103 -18.947506 3.4375
2.150604 -18.750977 3.28125
2.150604 -18.750977 3.59375
0.94089299 -17.87207 3.28125
0.94089299 -17.87207 3.59375
3.901314 -20.022942 3.28125
3.901314 -20.022942 3.59375
2.691602 -19.144035 3.28125
2.691602 -19.144035 3.59375
8.3419437 -23.249249 2.8125
8.0714455 -23.052719 2.65625
8.0714455 -23.052719 2.96875
6.8617339 -22.173813 2.65625
6.8617339 -22.173813 2.96875
9.822154 -24.324684 2.65625
9.822154 -24.324684 2.96875
8.612443 -23.445778 2.65625
8.612443 -23.445778 2.96875
8.3419437 -23.249249 3.4375
8.0714455 -23.052719 3.28125
8.0714455 -23.052719 3.59375
6.8617339 -22.173813 3.28125
6.8617339 -22.173813 3.59375
9.822154 -24.324684 3.28125
9.822154 -24.324684 3.59375
8.612443 -23.445778 3.28125
8.612443 -23.445778 3.59375
8.024538 -18.598259 0
5.6520228 -21.294907 2.65625
5.6520228 -21.294907 2.96875
6.6871152 -17.326294 0
6.6871152 -17.326294 0
9.3619614 -19.870224 0
9.3619614 -19.870224 0
9.3619614 -17.326294 0
9.3619614 -17.326294 0
8.024538 -18.598259 0
5.6520228 -21.294907 3.28125
5.6520228 -21.294907 3.59375
6.6871152 -17.326294 0
6.6871152 -17.326294 0
9.3619614 -19.870224 0
7.4027328 -22.566872 3.59375
9.3619614 -17.326294 0
9.3619614 -17.326294 0
4.8405261 -20.705318 4.0625
3.3603151 -19.629883 3.90625
3.3603151 -19.629883 4.21875
5.1110239 -20.901848 3.90625
5.1110239 -20.901848 4.21875
4.8405261 -20.705318 4.6875
3.3603151 -19.629883 4.53125
3.3603151 -19.629883 4.84375
5.1110239 -20.901848 4.53125
5.1110239 -20.901848 4.84375
2.421103 -18.947506 4.0625
2.150604 -18.750977 3.90625
2.150604 -18.750977 4.21875
0.94089299 -17.87207 3.90625
0.94089299 -17.87207 4.21875
3.901314 -20.022942 3.90625
3.901314 -20.022942 4.21875
2.691602 -19.144035 3.90625
2.691602 -19.144035 4.21875
2.421103 -18.947506 4.6875
2.150604 -18.750977 4.53125
2.150604 -18.750977 4.84375
0.94089299 -17.87207 4.53125
0.94089299 -17.87207 4.84375
3.901314 -20.022942 4.53125
3.901314 -20.022942 4.84375
2.691602 -19.144035 4.53125
2.691602 -19.144035 4.84375
8.3419437 -23.249249 4.0625
8.0714455 -23.052719 3.90625
8.0714455 -23.052719 4.21875
6.8617339 -22.173813 3.90625
6.8617339 -22.173813 4.21875
9.822154 -24.324684 3.90625
9.822154 -24.324684 4.21875
8.612443 -23.445778 3.90625
8.612443 -23.445778 4.21875
8.3419437 -23.249249 4.6875
8.0714455 -23.052719 4.53125
8.0714455 -23.052719 4.84375
6.8617339 -22.173813 4.53125
6.8617339 -22.173813 4.84375
9.822154 -24.324684 4.53125
9.822154 -24.324684 4.84375
8.612443 -23.445778 4.53125
8.612443 -23.445778 4.84375
5.9225221 -21.491436 4.0625
5.6520228 -21.294907 3.90625
5.6520228 -21.294907 4.21875
7.4027328 -22.566872 3.90625
7.4027328 -22.566872 4.21875
5.9225221 -21.491436 4.6875
5.6520228 -21.294907 4.53125
5.6520228 -21.294907 4.84375
7.4027328 -22.566872 4.53125
7.4027328 -22.566872 4.84375
16.682205 -29.308804 2.8125
16.682205 -29.308804 3.4375
14.262784 -27.550989 2.8125
13.992285 -27.354462 2.65625
13.992285 -27.354462 2.96875
12.782574 -26.475555 2.65625
12.782574 -26.475555 2.96875
15.742993 -28.626425 2.65625
15.742993 -28.626425 2.96875
14.533283 -27.747519 2.65625
14.533283 -27.747519 2.96875
14.262784 -27.550989 3.4375
13.992285 -27.354462 3.28125
13.992285 -27.354462 3.59375
12.782574 -26.475555 3.28125
