# .PCD v0.7 - Point Cloud Data file format
VERSION 0.7
FIELDS x y z
SIZE 4 4 4
TYPE F F F
COUNT 1 1 1
WIDTH 1751
HEIGHT 1
VIEWPOINT 0 0 0 1 0 0 0
POINTS 1751
DATA ascii
-43.596119 -39.0625 5
-48.051468 -40.625 7.794117
-48.4375 -42.1875 6.25
-47.849262 -42.1875 8.6029406
-48.4375 -39.0625 6.25
-47.849262 -39.0625 8.6029406
-43.402966 -42.1875 5.7726159
-47.66544 -42.1875 9.3382349
-43.402966 -39.0625 5.7726159
-47.66544 -39.0625 9.3382349
-40.625 -49.22794 3.0882349
-42.1875 -49.613968 1.544117
-42.1875 -49.025734 3.897059
-42.1875 -45.3125 0
-42.187496 -43.596119 5
-39.0625 -49.613968 1.544117
-39.0625 -49.025734 3.897059
-39.0625 -45.3125 0
-39.062496 -43.596119 5
-40.625 -48.051468 7.794117
-42.1875 -48.4375 6.25
-42.1875 -47.849262 8.6029406
-42.1875 -43.402966 5.7726159
-42.1875 -47.66544 9.3382349
-39.0625 -48.4375 6.25
-39.0625 -47.849262 8.6029406
-39.0625 -43.402966 5.7726159
-39.0625 -47.66544 9.3382349
-40.625 -40.625 5
-42.1875 -42.1875 0
-42.1875 -42.1875 5
-42.1875 -39.0625 0
-42.1875 -39.0625 5
-39.0625 -42.1875 0
-39.0625 -42.1875 5
-39.0625 -39.0625 0
-39.0625 -39.0625 5
-42.833111 -40.625 8.0520277
-43.219143 -42.1875 6.5079112
-42.630909 -42.1875 8.8608522
-43.219143 -39.0625 6.5079112
-42.630909 -39.0625 8.8608522
-39.0625 -43.219143 6.5079112
-39.0625 -42.630909 8.8608522
-39.0625 -39.0625 5
-42.447083 -39.0625 9.5961456
-46.875 -46.875 12.5
-47.326389 -47.326389 10.694445
-46.770836 -46.770836 12.916664
-47.261028 -45.3125 10.955882
-46.672791 -45.3125 13.308823
-45.3125 -47.261028 10.955882
-45.3125 -46.672791 13.308823
-45.3125 -47.077206 11.691176
-45.3125 -46.488968 14.044117
-45.763889 -45.763889 16.944447
-46.215279 -46.215279 15.138888
-45.659721 -45.659721 17.361111
-46.084557 -45.3125 15.661764
-45.496323 -45.3125 18.014706
-45.3125 -46.084557 15.661764
-45.3125 -45.496323 18.014706
-45.3125 -45.900734 16.397058
-45.3125 -45.3125 18.75
-46.874996 -40.625 12.499999
-47.261028 -42.1875 10.955882
-46.672791 -42.1875 13.308823
-47.261028 -39.0625 10.955882
-46.672791 -39.0625 13.308823
-47.077206 -42.1875 11.691176
-46.488968 -42.1875 14.044117
-47.077206 -39.0625 11.691176
-46.488968 -39.0625 14.044117
-45.698528 -40.625 17.205881
-46.084557 -42.1875 15.661764
-45.496323 -42.1875 18.014706
-46.084557 -39.0625 15.661764
-45.496323 -39.0625 18.014706
-45.900734 -42.1875 16.397058
-45.3125 -42.1875 18.75
-45.900734 -39.0625 16.397058
-45.3125 -39.0625 18.75
-40.625 -46.874996 12.499999
-42.1875 -47.261028 10.955882
-42.1875 -46.672791 13.308823
-42.1875 -47.077206 11.691176
-42.1875 -46.488968 14.044117
-39.0625 -47.261028 10.955882
-39.0625 -46.672791 13.308823
-39.0625 -47.077206 11.691176
-39.0625 -46.488968 14.044117
-40.625 -45.698528 17.205881
-42.1875 -46.084557 15.661764
-42.1875 -45.496323 18.014706
-42.1875 -45.900734 16.397058
-42.1875 -45.3125 18.75
-39.0625 -46.084557 15.661764
-39.0625 -45.496323 18.014706
-39.0625 -45.900734 16.397058
-39.0625 -45.3125 18.75
-41.656639 -40.625 12.75791
-42.05072 -42.05072 11.18161
-41.495163 -41.495163 13.403831
-42.042667 -39.0625 11.213792
-41.454433 -39.0625 13.566733
-39.0625 -42.042667 11.213792
-39.0625 -41.454433 13.566733
-41.858845 -39.0625 11.949085
-41.270607 -39.0625 14.302027
-40.488216 -40.488216 17.43161
-40.939606 -40.939606 15.626053
-40.384048 -40.384048 17.848278
-40.866199 -39.0625 15.919675
-40.277966 -39.0625 18.272615
-39.0625 -40.866199 15.919675
-39.0625 -40.277966 18.272615
-40.682373 -39.0625 16.654968
-40.094139 -39.0625 19.00791
-49.22794 -34.375 3.0882349
-49.613968 -35.9375 1.544117
-49.025734 -35.9375 3.897059
-49.613968 -32.8125 1.544117
-49.025734 -32.8125 3.897059
-45.3125 -35.9375 0
-43.596119 -35.9375 5
-45.3125 -32.8125 0
-43.596119 -32.8125 5
-48.051468 -34.375 7.794117
-48.4375 -35.9375 6.25
-47.849262 -35.9375 8.6029406
-48.4375 -32.8125 6.25
-47.849262 -32.8125 8.6029406
-43.402966 -35.9375 5.7726159
-47.66544 -35.9375 9.3382349
-43.402966 -32.8125 5.7726159
-47.66544 -32.8125 9.3382349
-49.22794 -28.125 3.0882349
-49.613968 -29.6875 1.544117
-49.025734 -29.6875 3.897059
-49.613968 -26.5625 1.544117
-49.025734 -26.5625 3.897059
-45.3125 -29.6875 0
-43.596119 -29.6875 5
-45.3125 -26.5625 0
-43.596119 -26.5625 5
-48.051468 -28.125 7.794117
-48.4375 -29.6875 6.25
-47.849262 -29.6875 8.6029406
-48.4375 -26.5625 6.25
-47.849262 -26.5625 8.6029406
-43.402966 -29.6875 5.7726159
-47.66544 -29.6875 9.3382349
-43.402966 -26.5625 5.7726159
-47.66544 -26.5625 9.3382349
-40.625 -34.375 5
-42.1875 -35.9375 0
-42.1875 -35.9375 5
-42.1875 -32.8125 0
-42.1875 -32.8125 5
-39.0625 -35.9375 0
-39.0625 -35.9375 5
-39.0625 -32.8125 0
-39.0625 -32.8125 5
-42.833111 -34.375 8.0520277
-43.219143 -35.9375 6.5079112
-42.630909 -35.9375 8.8608522
-43.219143 -32.8125 6.5079112
-42.630909 -32.8125 8.8608522
-39.0625 -35.9375 5
-42.447083 -35.9375 9.5961456
-39.0625 -32.8125 5
-42.447083 -32.8125 9.5961456
-40.625 -28.125 5
-42.1875 -29.6875 0
-42.1875 -29.6875 5
-42.1875 -26.5625 0
-42.1875 -26.5625 5
-39.0625 -29.6875 0
-39.0625 -29.6875 5
-39.0625 -26.5625 0
-39.0625 -26.5625 5
-42.833111 -28.125 8.0520277
-43.219143 -29.6875 6.5079112
-42.630909 -29.6875 8.8608522
-43.219143 -26.5625 6.5079112
-42.630909 -26.5625 8.8608522
-39.0625 -29.6875 5
-42.447083 -29.6875 9.5961456
-39.0625 -26.5625 5
-42.447083 -26.5625 9.5961456
-46.874996 -34.375 12.499999
-47.261028 -35.9375 10.955882
-46.672791 -35.9375 13.308823
-47.261028 -32.8125 10.955882
-46.672791 -32.8125 13.308823
-47.077206 -35.9375 11.691176
-46.488968 -35.9375 14.044117
-47.077206 -32.8125 11.691176
-46.488968 -32.8125 14.044117
-45.698528 -34.375 17.205881
-46.084557 -35.9375 15.661764
-45.496323 -35.9375 18.014706
-46.084557 -32.8125 15.661764
-45.496323 -32.8125 18.014706
-45.900734 -35.9375 16.397058
-45.3125 -35.9375 18.75
-45.900734 -32.8125 16.397058
-45.3125 -32.8125 18.75
-46.874996 -28.125 12.499999
-47.261028 -29.6875 10.955882
-46.672791 -29.6875 13.308823
-47.261028 -26.5625 10.955882
-46.672791 -26.5625 13.308823
-47.077206 -29.6875 11.691176
-46.488968 -29.6875 14.044117
-47.077206 -26.5625 11.691176
-46.488968 -26.5625 14.044117
-45.698528 -28.125 17.205881
-46.084557 -29.6875 15.661764
-45.496323 -29.6875 18.014706
-46.084557 -26.5625 15.661764
-45.496323 -26.5625 18.014706
-45.900734 -29.6875 16.397058
-45.3125 -29.6875 18.75
-45.900734 -26.5625 16.397058
-45.3125 -26.5625 18.75
-41.656639 -34.375 12.75791
-42.042667 -35.9375 11.213792
-41.454433 -35.9375 13.566733
-42.042667 -32.8125 11.213792
-41.454433 -32.8125 13.566733
-41.858845 -35.9375 11.949085
-41.270607 -35.9375 14.302027
-41.858845 -32.8125 11.949085
-41.270607 -32.8125 14.302027
-40.480167 -34.375 17.463793
-40.866199 -35.9375 15.919675
-40.277966 -35.9375 18.272615
-40.866199 -32.8125 15.919675
-40.277966 -32.8125 18.272615
-40.682373 -35.9375 16.654968
-40.094139 -35.9375 19.00791
-40.682373 -32.8125 16.654968
-40.094139 -32.8125 19.00791
-41.656639 -28.125 12.75791
-42.042667 -29.6875 11.213792
-41.454433 -29.6875 13.566733
-42.042667 -26.5625 11.213792
-41.454433 -26.5625 13.566733
-41.858845 -29.6875 11.949085
-41.270607 -29.6875 14.302027
-41.858845 -26.5625 11.949085
-41.270607 -26.5625 14.302027
-40.480167 -28.125 17.463793
-40.866199 -29.6875 15.919675
-40.277966 -29.6875 18.272615
-40.866199 -26.5625 15.919675
-40.277966 -26.5625 18.272615
-40.682373 -29.6875 16.654968
-40.094139 -29.6875 19.00791
-40.682373 -26.5625 16.654968
-40.094139 -26.5625 19.00791
-34.375 -49.22794 3.0882349
-35.9375 -49.613968 1.544117
-35.9375 -49.025734 3.897059
-35.9375 -45.3125 0
-35.937496 -43.596119 5
-32.8125 -49.613968 1.544117
-32.8125 -49.025734 3.897059
-32.8125 -45.3125 0
-32.812504 -43.596119 5
-34.375 -48.051468 7.794117
-35.9375 -48.4375 6.25
-35.9375 -47.849262 8.6029406
-35.9375 -43.402966 5.7726159
-35.9375 -47.66544 9.3382349
-32.8125 -48.4375 6.25
-32.8125 -47.849262 8.6029406
-32.8125 -43.402966 5.7726159
-32.8125 -47.66544 9.3382349
-34.375 -40.625 5
-35.9375 -42.1875 0
-35.9375 -42.1875 5
-35.9375 -39.0625 0
-35.9375 -39.0625 5
-32.8125 -42.1875 0
-32.8125 -42.1875 5
-32.8125 -39.0625 0
-32.8125 -39.0625 5
-34.375 -42.833111 8.0520277
-35.9375 -43.219143 6.5079112
-35.9375 -42.630909 8.8608522
-35.9375 -39.0625 5
-35.9375 -42.447083 9.5961456
-32.8125 -43.219143 6.5079112
-32.8125 -42.630909 8.8608522
-32.8125 -39.0625 5
-32.8125 -42.447083 9.5961456
-28.125 -49.22794 3.0882349
-29.6875 -49.613968 1.544117
-29.6875 -49.025734 3.897059
-29.6875 -45.3125 0
-29.687496 -43.596119 5
-26.5625 -49.613968 1.544117
-26.5625 -49.025734 3.897059
-26.5625 -45.3125 0
-26.562496 -43.596119 5
-28.125 -48.051468 7.794117
-29.6875 -48.4375 6.25
-29.6875 -47.849262 8.6029406
-29.6875 -43.402966 5.7726159
-29.6875 -47.66544 9.3382349
-26.5625 -48.4375 6.25
-26.5625 -47.849262 8.6029406
-26.5625 -43.402966 5.7726159
-26.5625 -47.66544 9.3382349
-28.125 -40.625 5
-29.6875 -42.1875 0
-29.6875 -42.1875 5
-29.6875 -39.0625 0
-29.6875 -39.0625 5
-26.5625 -42.1875 0
-26.5625 -42.1875 5
-26.5625 -39.0625 0
-26.5625 -39.0625 5
-28.125 -42.833111 8.0520277
-29.6875 -43.219143 6.5079112
-29.6875 -42.630909 8.8608522
-29.6875 -39.0625 5
-29.6875 -42.447083 9.5961456
-26.5625 -43.219143 6.5079112
-26.5625 -42.630909 8.8608522
-26.5625 -39.0625 5
-26.5625 -42.447083 9.5961456
-34.375 -46.874996 12.499999
-35.9375 -47.261028 10.955882
-35.9375 -46.672791 13.308823
-35.9375 -47.077206 11.691176
-35.9375 -46.488968 14.044117
-32.8125 -47.261028 10.955882
-32.8125 -46.672791 13.308823
-32.8125 -47.077206 11.691176
-32.8125 -46.488968 14.044117
-34.375 -45.698528 17.205881
-35.9375 -46.084557 15.661764
-35.9375 -45.496323 18.014706
-35.9375 -45.900734 16.397058
-35.9375 -45.3125 18.75
-32.8125 -46.084557 15.661764
-32.8125 -45.496323 18.014706
-32.8125 -45.900734 16.397058
-32.8125 -45.3125 18.75
-34.375 -41.656639 12.75791
-35.9375 -42.042667 11.213792
-35.9375 -41.454433 13.566733
-35.9375 -41.858845 11.949085
-35.9375 -41.270607 14.302027
-32.8125 -42.042667 11.213792
-32.8125 -41.454433 13.566733
-32.8125 -41.858845 11.949085
-32.8125 -41.270607 14.302027
-34.375 -40.480167 17.463793
-35.9375 -40.866199 15.919675
-35.9375 -40.277966 18.272615
-35.9375 -40.682373 16.654968
-35.9375 -40.094139 19.00791
-32.8125 -40.866199 15.919675
-32.8125 -40.277966 18.272615
-32.8125 -40.682373 16.654968
-32.8125 -40.094139 19.00791
-28.125 -46.874996 12.499999
-29.6875 -47.261028 10.955882
-29.6875 -46.672791 13.308823
-29.6875 -47.077206 11.691176
-29.6875 -46.488968 14.044117
-26.5625 -47.261028 10.955882
-26.5625 -46.672791 13.308823
-26.5625 -47.077206 11.691176
-26.5625 -46.488968 14.044117
-28.125 -45.698528 17.205881
-29.6875 -46.084557 15.661764
-29.6875 -45.496323 18.014706
-29.6875 -45.900734 16.397058
-29.6875 -45.3125 18.75
-26.5625 -46.084557 15.661764
-26.5625 -45.496323 18.014706
-26.5625 -45.900734 16.397058
-26.5625 -45.3125 18.75
-28.125 -41.656639 12.75791
-29.6875 -42.042667 11.213792
-29.6875 -41.454433 13.566733
-29.6875 -41.858845 11.949085
-29.6875 -41.270607 14.302027
-26.5625 -42.042667 11.213792
-26.5625 -41.454433 13.566733
-26.5625 -41.858845 11.949085
-26.5625 -41.270607 14.302027
-28.125 -40.480167 17.463793
-29.6875 -40.866199 15.919675
-29.6875 -40.277966 18.272615
-29.6875 -40.682373 16.654968
-29.6875 -40.094139 19.00791
-26.5625 -40.866199 15.919675
-26.5625 -40.277966 18.272615
-26.5625 -40.682373 16.654968
-26.5625 -40.094139 19.00791
-34.375 -34.375 5
-35.9375 -35.9375 0
-35.9375 -35.9375 5
-35.9375 -32.8125 0
-35.9375 -32.8125 5
-32.8125 -35.9375 0
-32.8125 -35.9375 5
-32.8125 -32.8125 0
-32.8125 -32.8125 5
-34.375 -34.375 5
-35.9375 -35.9375 5
-35.9375 -35.9375 5
-35.9375 -32.8125 5
-35.9375 -32.8125 5
-32.8125 -35.9375 5
-32.8125 -35.9375 5
-32.8125 -32.8125 5
-32.8125 -32.8125 5
-34.375 -28.125 5
-35.9375 -29.6875 0
-35.9375 -29.6875 5
-35.9375 -26.5625 0
-35.9375 -26.5625 5
-32.8125 -29.6875 0
-32.8125 -29.6875 5
-32.8125 -26.5625 0
-32.8125 -26.5625 5
-34.375 -28.125 5
-35.9375 -29.6875 5
-35.9375 -29.6875 5
-35.9375 -26.5625 5
-35.9375 -26.5625 5
-32.8125 -29.6875 5
-32.8125 -29.6875 5
-32.8125 -26.5625 5
-32.8125 -26.5625 5
-28.125 -34.375 5
-29.6875 -35.9375 0
-29.6875 -35.9375 5
-29.6875 -32.8125 0
-29.6875 -32.8125 5
-26.5625 -35.9375 0
-26.5625 -35.9375 5
-26.5625 -32.8125 0
-26.5625 -32.8125 5
-28.125 -34.375 5
-29.6875 -35.9375 5
-29.6875 -35.9375 5
-29.6875 -32.8125 5
-29.6875 -32.8125 5
-26.5625 -35.9375 5
-26.5625 -35.9375 5
-26.5625 -32.8125 5
-26.5625 -32.8125 5
-28.125 -28.125 5
-29.6875 -29.6875 0
-29.6875 -29.6875 5
-29.6875 -26.5625 0
-29.6875 -26.5625 5
-26.5625 -29.6875 0
-26.5625 -29.6875 5
-26.5625 -26.5625 0
-26.5625 -26.5625 5
-28.125 -28.125 5
-29.6875 -29.6875 5
-29.6875 -29.6875 5
-29.6875 -26.5625 5
-29.6875 -26.5625 5
-26.5625 -29.6875 5
-26.5625 -29.6875 5
-26.5625 -26.5625 5
-26.5625 -26.5625 5
-41.288994 -34.375 14.228498
-40.112526 -34.375 18.934381
-40.49855 -35.9375 17.390263
-39.910316 -35.9375 19.743204
-40.49855 -32.8125 17.390263
-39.910316 -32.8125 19.743204
-32.8125 -40.49855 17.390263
-32.8125 -39.910316 19.743204
-41.288994 -28.125 14.228498
-40.112526 -28.125 18.934381
-40.49855 -29.6875 17.390263
-39.910316 -29.6875 19.743204
-40.49855 -26.5625 17.390263
-39.910316 -26.5625 19.743204
-28.125 -41.288994 14.228498
-28.125 -40.112526 18.934381
-29.6875 -40.49855 17.390263
-29.6875 -39.910316 19.743204
-26.5625 -40.49855 17.390263
-26.5625 -39.910316 19.743204
-28.125 -28.125 5
-44.652779 -44.652779 21.388889
-45.104168 -45.104168 19.583334
-44.930557 -44.930557 20.277779
-44.375 -44.375 22.5
-44.930557 -44.930557 20.277779
-44.375 -44.375 22.5
-44.756943 -44.756943 20.972223
-44.201389 -44.201389 23.194447
-43.541668 -43.541668 25.833332
-43.645836 -43.645836 25.416664
-43.090279 -43.090279 27.638889
-44.522057 -40.625 21.911764
-44.908089 -42.1875 20.367647
-44.319847 -42.1875 22.720587
-44.908089 -39.0625 20.367647
-44.319847 -39.0625 22.720587
-44.724266 -42.1875 21.102942
-44.136032 -42.1875 23.455883
-44.724266 -39.0625 21.102942
-44.136032 -39.0625 23.455883
-43.345585 -40.625 26.617645
-43.731613 -42.1875 25.073528
-43.731613 -39.0625 25.073528
-43.547791 -42.1875 25.808823
-42.959557 -42.1875 28.161764
-43.547791 -39.0625 25.808823
-42.959557 -39.0625 28.161764
-40.625 -44.522057 21.911764
-42.1875 -44.908089 20.367647
-42.1875 -44.319847 22.720587
-42.1875 -44.724266 21.102942
-42.1875 -44.136032 23.455883
-39.0625 -44.908089 20.367647
-39.0625 -44.319847 22.720587
-39.0625 -44.724266 21.102942
-39.0625 -44.136032 23.455883
-40.625 -43.345585 26.617645
-42.1875 -43.731613 25.073528
-42.1875 -43.547791 25.808823
-42.1875 -42.959557 28.161764
-39.0625 -43.731613 25.073528
-39.0625 -43.547791 25.808823
-39.0625 -42.959557 28.161764
-39.377106 -39.377106 21.876053
-42.1875 -44.540443 21.838236
-42.1875 -43.952206 24.191175
-44.540443 -39.0625 21.838236
-43.952206 -39.0625 24.191175
-39.0625 -44.540443 21.838236
-39.0625 -43.952206 24.191175
-39.505905 -39.0625 21.360851
-38.925716 -38.925716 23.68161
-40.625 -42.97794 28.088234
-42.1875 -43.363968 26.544117
-42.1875 -42.775734 28.897058
-43.363968 -39.0625 26.544117
-42.775734 -39.0625 28.897058
-39.0625 -43.363968 26.544117
-39.0625 -42.775734 28.897058
-38.370163 -38.370163 25.903831
-37.814606 -37.814606 28.126057
-42.430557 -42.430557 30.277779
-42.534721 -42.534721 29.861111
-41.979168 -41.979168 32.083332
-41.319443 -41.319443 34.722221
-42.169113 -40.625 31.323528
-42.371323 -42.1875 30.514706
-41.805557 -41.805557 32.777779
-42.371323 -39.0625 30.514706
-41.783089 -39.0625 32.867645
-40.992645 -40.625 36.029411
-41.25 -41.25 35
-41.194855 -39.0625 35.220589
-40.606613 -39.0625 37.573528
-40.625 -42.169113 31.323528
-42.1875 -42.371323 30.514706
-41.805557 -41.805557 32.777779
-39.0625 -42.371323 30.514706
-39.0625 -41.783089 32.867645
-40.625 -40.992645 36.029411
-41.25 -41.25 35
-39.0625 -41.194855 35.220589
-39.0625 -40.606613 37.573528
-40.625 -41.801468 32.794117
-42.1875 -42.1875 31.25
-41.631943 -41.631943 33.472221
-42.1875 -39.0625 31.25
-41.599266 -39.0625 33.60294
-39.0625 -42.1875 31.25
-39.0625 -41.599266 33.60294
-37.259052 -37.259052 30.348274
-39.0625 -41.41544 34.338234
-40.625 -40.625 37.5
-41.076389 -41.076389 35.694447
-40.520836 -40.520836 37.916664
-41.011032 -39.0625 35.955883
-40.422794 -39.0625 38.308823
-39.0625 -41.011032 35.955883
-39.0625 -40.422794 38.308823
-39.0625 -40.827206 36.691177
-39.0625 -40.238968 39.044117
-44.522057 -34.375 21.911764
-44.908089 -35.9375 20.367647
-44.319847 -35.9375 22.720587
-44.908089 -32.8125 20.367647
-44.319847 -32.8125 22.720587
-44.724266 -35.9375 21.102942
-44.136032 -35.9375 23.455883
-44.724266 -32.8125 21.102942
-44.136032 -32.8125 23.455883
-43.345585 -34.375 26.617645
-43.731613 -35.9375 25.073528
-43.731613 -32.8125 25.073528
-43.547791 -35.9375 25.808823
-42.959557 -35.9375 28.161764
-43.547791 -32.8125 25.808823
-42.959557 -32.8125 28.161764
-44.522057 -28.125 21.911764
-44.908089 -29.6875 20.367647
-44.319847 -29.6875 22.720587
-44.908089 -26.5625 20.367647
-44.319847 -26.5625 22.720587
-44.724266 -29.6875 21.102942
-44.136032 -29.6875 23.455883
-44.724266 -26.5625 21.102942
-44.136032 -26.5625 23.455883
-43.345585 -28.125 26.617645
-43.731613 -29.6875 25.073528
-43.731613 -26.5625 25.073528
-43.547791 -29.6875 25.808823
-42.959557 -29.6875 28.161764
-43.547791 -26.5625 25.808823
-42.959557 -26.5625 28.161764
-39.303699 -34.375 22.169676
-44.540443 -35.9375 21.838236
-43.952206 -35.9375 24.191175
-44.540443 -32.8125 21.838236
-43.952206 -32.8125 24.191175
-39.505905 -35.9375 21.360851
-38.917667 -35.9375 23.713793
-39.505905 -32.8125 21.360851
-38.917667 -32.8125 23.713793
-42.97794 -34.375 28.088234
-43.363968 -35.9375 26.544117
-42.775734 -35.9375 28.897058
-43.363968 -32.8125 26.544117
-42.775734 -32.8125 28.897058
-38.329433 -35.9375 26.066734
-37.741196 -35.9375 28.419674
-38.329433 -32.8125 26.066734
-37.741196 -32.8125 28.419674
-39.303699 -28.125 22.169676
-44.540443 -29.6875 21.838236
-43.952206 -29.6875 24.191175
-44.540443 -26.5625 21.838236
-43.952206 -26.5625 24.191175
-39.505905 -29.6875 21.360851
-38.917667 -29.6875 23.713793
-39.505905 -26.5625 21.360851
-38.917667 -26.5625 23.713793
-42.97794 -28.125 28.088234
-43.363968 -29.6875 26.544117
-42.775734 -29.6875 28.897058
-43.363968 -26.5625 26.544117
-42.775734 -26.5625 28.897058
-38.329433 -29.6875 26.066734
-37.741196 -29.6875 28.419674
-38.329433 -26.5625 26.066734
-37.741196 -26.5625 28.419674
-42.169113 -34.375 31.323528
-42.371323 -35.9375 30.514706
-41.783089 -35.9375 32.867645
-42.371323 -32.8125 30.514706
-41.783089 -32.8125 32.867645
-40.992645 -34.375 36.029411
-41.194855 -35.9375 35.220589
-40.606613 -35.9375 37.573528
-41.194855 -32.8125 35.220589
-40.606613 -32.8125 37.573528
-42.169113 -28.125 31.323528
-42.371323 -29.6875 30.514706
-41.783089 -29.6875 32.867645
-42.371323 -26.5625 30.514706
-41.783089 -26.5625 32.867645
-40.992645 -28.125 36.029411
-41.194855 -29.6875 35.220589
-40.606613 -29.6875 37.573528
-41.194855 -26.5625 35.220589
-40.606613 -26.5625 37.573528
-41.801468 -34.375 32.794117
-42.1875 -35.9375 31.25
-41.599266 -35.9375 33.60294
-42.1875 -32.8125 31.25
-41.599266 -32.8125 33.60294
-37.152962 -35.9375 30.772615
-41.41544 -35.9375 34.338234
-37.152962 -32.8125 30.772615
-41.41544 -32.8125 34.338234
-40.625 -34.375 37.5
-41.011032 -35.9375 35.955883
-40.422794 -35.9375 38.308823
-41.011032 -32.8125 35.955883
-40.422794 -32.8125 38.308823
-40.827206 -35.9375 36.691177
-40.238968 -35.9375 39.044117
-40.827206 -32.8125 36.691177
-40.238968 -32.8125 39.044117
-41.801468 -28.125 32.794117
-42.1875 -29.6875 31.25
-41.599266 -29.6875 33.60294
-42.1875 -26.5625 31.25
-41.599266 -26.5625 33.60294
-37.152962 -29.6875 30.772615
-41.41544 -29.6875 34.338234
-37.152962 -26.5625 30.772615
-41.41544 -26.5625 34.338234
-40.625 -28.125 37.5
-41.011032 -29.6875 35.955883
-40.422794 -29.6875 38.308823
-41.011032 -26.5625 35.955883
-40.422794 -26.5625 38.308823
-40.827206 -29.6875 36.691177
-40.238968 -29.6875 39.044117
-40.827206 -26.5625 36.691177
-40.238968 -26.5625 39.044117
-34.375 -44.522057 21.911764
-35.9375 -44.908089 20.367647
-35.9375 -44.319847 22.720587
-35.9375 -44.724266 21.102942
-35.9375 -44.136032 23.455883
-32.8125 -44.908089 20.367647
-32.8125 -44.319847 22.720587
-32.8125 -44.724266 21.102942
-32.8125 -44.136032 23.455883
-34.375 -43.345585 26.617645
-35.9375 -43.731613 25.073528
-35.9375 -43.547791 25.808823
-35.9375 -42.959557 28.161764
-32.8125 -43.731613 25.073528
-32.8125 -43.547791 25.808823
-32.8125 -42.959557 28.161764
-34.375 -39.303699 22.169676
-35.9375 -44.540443 21.838236
-35.9375 -43.952206 24.191175
-35.9375 -39.505905 21.360851
-35.9375 -38.917667 23.713793
-32.8125 -44.540443 21.838236
-32.8125 -43.952206 24.191175
-32.8125 -39.505905 21.360851
-32.8125 -38.917667 23.713793
-34.375 -42.97794 28.088234
-35.9375 -43.363968 26.544117
-35.9375 -42.775734 28.897058
-35.9375 -38.329433 26.066734
-35.9375 -37.741196 28.419674
-32.8125 -43.363968 26.544117
-32.8125 -42.775734 28.897058
-32.8125 -38.329433 26.066734
-32.8125 -37.741196 28.419674
-28.125 -44.522057 21.911764
-29.6875 -44.908089 20.367647
-29.6875 -44.319847 22.720587
-29.6875 -44.724266 21.102942
-29.6875 -44.136032 23.455883
-26.5625 -44.908089 20.367647
-26.5625 -44.319847 22.720587
-26.5625 -44.724266 21.102942
-26.5625 -44.136032 23.455883
-28.125 -43.345585 26.617645
-29.6875 -43.731613 25.073528
-29.6875 -43.547791 25.808823
-29.6875 -42.959557 28.161764
-26.5625 -43.731613 25.073528
-26.5625 -43.547791 25.808823
-26.5625 -42.959557 28.161764
-28.125 -39.303699 22.169676
-29.6875 -44.540443 21.838236
-29.6875 -43.952206 24.191175
-29.6875 -39.505905 21.360851
-29.6875 -38.917667 23.713793
-26.5625 -44.540443 21.838236
-26.5625 -43.952206 24.191175
-26.5625 -39.505905 21.360851
-26.5625 -38.917667 23.713793
-28.125 -42.97794 28.088234
-29.6875 -43.363968 26.544117
-29.6875 -42.775734 28.897058
-29.6875 -38.329433 26.066734
-29.6875 -37.741196 28.419674
-26.5625 -43.363968 26.544117
-26.5625 -42.775734 28.897058
-26.5625 -38.329433 26.066734
-26.5625 -37.741196 28.419674
-34.375 -42.169113 31.323528
-35.9375 -42.371323 30.514706
-35.9375 -41.783089 32.867645
-32.8125 -42.371323 30.514706
-32.8125 -41.783089 32.867645
-34.375 -40.992645 36.029411
-35.9375 -41.194855 35.220589
-35.9375 -40.606613 37.573528
-32.8125 -41.194855 35.220589
-32.8125 -40.606613 37.573528
-34.375 -41.801468 32.794117
-35.9375 -42.1875 31.25
-35.9375 -41.599266 33.60294
-35.9375 -37.152962 30.772615
-35.9375 -41.41544 34.338234
-32.8125 -42.1875 31.25
-32.8125 -41.599266 33.60294
-32.8125 -37.152962 30.772615
-32.8125 -41.41544 34.338234
-34.375 -40.625 37.5
-35.9375 -41.011032 35.955883
-35.9375 -40.422794 38.308823
-35.9375 -40.827206 36.691177
-35.9375 -40.238968 39.044117
-32.8125 -41.011032 35.955883
-32.8125 -40.422794 38.308823
-32.8125 -40.827206 36.691177
-32.8125 -40.238968 39.044117
-28.125 -42.169113 31.323528
-29.6875 -42.371323 30.514706
-29.6875 -41.783089 32.867645
-26.5625 -42.371323 30.514706
-26.5625 -41.783089 32.867645
-28.125 -40.992645 36.029411
-29.6875 -41.194855 35.220589
-29.6875 -40.606613 37.573528
-26.5625 -41.194855 35.220589
-26.5625 -40.606613 37.573528
-28.125 -41.801468 32.794117
-29.6875 -42.1875 31.25
-29.6875 -41.599266 33.60294
-29.6875 -37.152962 30.772615
-29.6875 -41.41544 34.338234
-26.5625 -42.1875 31.25
-26.5625 -41.599266 33.60294
-26.5625 -37.152962 30.772615
-26.5625 -41.41544 34.338234
-28.125 -40.625 37.5
-29.6875 -41.011032 35.955883
-29.6875 -40.422794 38.308823
-29.6875 -40.827206 36.691177
-29.6875 -40.238968 39.044117
-26.5625 -41.011032 35.955883
-26.5625 -40.422794 38.308823
-26.5625 -40.827206 36.691177
-26.5625 -40.238968 39.044117
-38.936054 -34.375 23.640263
-39.322083 -35.9375 22.096146
-38.733849 -35.9375 24.449087
-39.322083 -32.8125 22.096146
-38.733849 -32.8125 24.449087
-32.8125 -39.322083 22.096146
-32.8125 -38.733849 24.449087
-37.759583 -34.375 28.346146
-38.145611 -35.9375 26.802029
-37.557377 -35.9375 29.15497
-38.145611 -32.8125 26.802029
-37.557377 -32.8125 29.15497
-32.8125 -38.145611 26.802029
-32.8125 -37.557377 29.15497
-37.37355 -32.8125 29.890263
-38.936054 -28.125 23.640263
-39.322083 -29.6875 22.096146
-38.733849 -29.6875 24.449087
-39.322083 -26.5625 22.096146
-38.733849 -26.5625 24.449087
-37.759583 -28.125 28.346146
-38.145611 -29.6875 26.802029
-37.557377 -29.6875 29.15497
-38.145611 -26.5625 26.802029
-37.557377 -26.5625 29.15497
-37.37355 -29.6875 29.890263
-37.37355 -26.5625 29.890263
-28.125 -38.936054 23.640263
-29.6875 -39.322083 22.096146
-29.6875 -38.733849 24.449087
-26.5625 -39.322083 22.096146
-26.5625 -38.733849 24.449087
-28.125 -37.759583 28.346146
-29.6875 -38.145611 26.802029
-29.6875 -37.557377 29.15497
-29.6875 -37.37355 29.890263
-26.5625 -38.145611 26.802029
-26.5625 -37.557377 29.15497
-26.5625 -37.37355 29.890263
-37.391937 -28.125 29.816734
-36.583111 -34.375 33.052029
-36.969139 -35.9375 31.50791
-36.380905 -35.9375 33.860851
-36.969139 -32.8125 31.50791
-36.380905 -32.8125 33.860851
-32.8125 -36.969139 31.50791
-32.8125 -36.380905 33.860851
-36.785316 -32.8125 32.243202
-36.197083 -32.8125 34.596146
-35.406643 -34.375 37.757912
-35.800716 -35.800716 36.18161
-35.245163 -35.245163 38.403831
-35.792667 -32.8125 36.213791
-35.204433 -32.8125 38.566734
-32.8125 -35.792667 36.213791
-32.8125 -35.204433 38.566734
-35.608849 -32.8125 36.949085
-35.020611 -32.8125 39.302029
-36.583111 -28.125 33.052029
-36.969139 -29.6875 31.50791
-36.380905 -29.6875 33.860851
-36.969139 -26.5625 31.50791
-36.380905 -26.5625 33.860851
-36.785316 -29.6875 32.243202
-36.197083 -29.6875 34.596146
-36.785316 -26.5625 32.243202
-36.197083 -26.5625 34.596146
-35.406643 -28.125 37.757912
-35.792667 -29.6875 36.213791
-35.204433 -29.6875 38.566734
-35.792667 -26.5625 36.213791
-35.204433 -26.5625 38.566734
-35.608849 -29.6875 36.949085
-35.020611 -29.6875 39.302029
-35.608849 -26.5625 36.949085
-35.020611 -26.5625 39.302029
-28.125 -36.583111 33.052029
-29.6875 -36.969139 31.50791
-29.6875 -36.380905 33.860851
-29.6875 -36.785316 32.243202
-29.6875 -36.197083 34.596146
-26.5625 -36.969139 31.50791
-26.5625 -36.380905 33.860851
-26.5625 -36.785316 32.243202
-26.5625 -36.197083 34.596146
-28.125 -35.406643 37.757912
-29.6875 -35.792667 36.213791
-29.6875 -35.204433 38.566734
-29.6875 -35.608849 36.949085
-29.6875 -35.020611 39.302029
-26.5625 -35.792667 36.213791
-26.5625 -35.204433 38.566734
-26.5625 -35.608849 36.949085
-26.5625 -35.020611 39.302029
-36.215462 -28.125 34.522617
-35.038994 -28.125 39.228497
-49.22794 -21.875 3.0882349
-49.613968 -23.4375 1.544117
-49.025734 -23.4375 3.897059
-49.613968 -20.3125 1.544117
-49.025734 -20.3125 3.897059
-45.3125 -23.4375 0
-43.596119 -23.4375 5
-45.3125 -20.3125 0
-43.596119 -20.3125 5
-48.051468 -21.875 7.794117
-48.4375 -23.4375 6.25
-47.849262 -23.4375 8.6029406
-48.4375 -20.3125 6.25
-47.849262 -20.3125 8.6029406
-43.402966 -23.4375 5.7726159
-47.66544 -23.4375 9.3382349
-43.402966 -20.3125 5.7726159
-47.66544 -20.3125 9.3382349
-49.22794 -15.625 3.0882349
-49.613968 -17.1875 1.544117
-49.025734 -17.1875 3.897059
-49.613968 -14.0625 1.544117
-49.025734 -14.0625 3.897059
-45.3125 -17.1875 0
-43.596119 -17.187502 5
-45.3125 -14.0625 0
-43.596119 -14.062496 5
-48.051468 -15.625 7.794117
-48.4375 -17.1875 6.25
-47.849262 -17.1875 8.6029406
-48.4375 -14.0625 6.25
-47.849262 -14.0625 8.6029406
-43.402966 -17.1875 5.7726159
-47.66544 -17.1875 9.3382349
-43.402966 -14.0625 5.7726159
-47.66544 -14.0625 9.3382349
-40.625 -21.875 5
-42.1875 -23.4375 0
-42.1875 -23.4375 5
-42.1875 -20.3125 0
-42.1875 -20.3125 5
-39.0625 -23.4375 0
-39.0625 -23.4375 5
-39.0625 -20.3125 0
-39.0625 -20.3125 5
-42.833111 -21.875 8.0520277
-43.219143 -23.4375 6.5079112
-42.630909 -23.4375 8.8608522
-43.219143 -20.3125 6.5079112
-42.630909 -20.3125 8.8608522
-39.0625 -23.4375 5
-42.447083 -23.4375 9.5961456
-39.0625 -20.3125 5
-42.447083 -20.3125 9.5961456
-40.625 -15.625 0
-42.1875 -17.1875 0
-42.1875 -17.1875 5
-42.1875 -14.0625 0
-42.1875 -14.0625 5
-39.0625 -17.1875 0
-39.0625 -17.1875 5
-39.0625 -14.0625 0
-39.0625 -14.0625 5
-42.833111 -15.625 8.0520277
-43.219143 -17.1875 6.5079112
-42.630909 -17.1875 8.8608522
-43.219143 -14.0625 6.5079112
-42.630909 -14.0625 8.8608522
-39.0625 -17.1875 5
-42.447083 -17.1875 9.5961456
-39.0625 -14.0625 5
-42.447083 -14.0625 9.5961456
-46.874996 -21.875 12.499999
-47.261028 -23.4375 10.955882
-46.672791 -23.4375 13.308823
-47.261028 -20.3125 10.955882
-46.672791 -20.3125 13.308823
-47.077206 -23.4375 11.691176
-46.488968 -23.4375 14.044117
-47.077206 -20.3125 11.691176
-46.488968 -20.3125 14.044117
-45.698528 -21.875 17.205881
-46.084557 -23.4375 15.661764
-45.496323 -23.4375 18.014706
-46.084557 -20.3125 15.661764
-45.496323 -20.3125 18.014706
-45.900734 -23.4375 16.397058
-45.3125 -23.4375 18.75
-45.900734 -20.3125 16.397058
-45.3125 -20.3125 18.75
-46.874996 -15.625 12.499999
-47.261028 -17.1875 10.955882
-46.672791 -17.1875 13.308823
-47.261028 -14.0625 10.955882
-46.672791 -14.0625 13.308823
-47.077206 -17.1875 11.691176
-46.488968 -17.1875 14.044117
-47.077206 -14.0625 11.691176
-46.488968 -14.0625 14.044117
-45.698528 -15.625 17.205881
-46.084557 -17.1875 15.661764
-45.496323 -17.1875 18.014706
-46.084557 -14.0625 15.661764
-45.496323 -14.0625 18.014706
-45.900734 -17.1875 16.397058
-45.3125 -17.1875 18.75
-45.900734 -14.0625 16.397058
-45.3125 -14.0625 18.75
-41.656639 -21.875 12.75791
-42.042667 -23.4375 11.213792
-41.454433 -23.4375 13.566733
-42.042667 -20.3125 11.213792
-41.454433 -20.3125 13.566733
-41.858845 -23.4375 11.949085
-41.270607 -23.4375 14.302027
-41.858845 -20.3125 11.949085
-41.270607 -20.3125 14.302027
-40.480167 -21.875 17.463793
-40.866199 -23.4375 15.919675
-40.277966 -23.4375 18.272615
-40.866199 -20.3125 15.919675
-40.277966 -20.3125 18.272615
-40.682373 -23.4375 16.654968
-40.094139 -23.4375 19.00791
-40.682373 -20.3125 16.654968
-40.094139 -20.3125 19.00791
-41.656639 -15.625 12.75791
-42.042667 -17.1875 11.213792
-41.454433 -17.1875 13.566733
-42.042667 -14.0625 11.213792
-41.454433 -14.0625 13.566733
-41.858845 -17.1875 11.949085
-41.270607 -17.1875 14.302027
-41.858845 -14.0625 11.949085
-41.270607 -14.0625 14.302027
-40.480167 -15.625 17.463793
-40.866199 -17.1875 15.919675
-40.277966 -17.1875 18.272615
-40.866199 -14.0625 15.919675
-40.277966 -14.0625 18.272615
-40.682373 -17.1875 16.654968
-40.094139 -17.1875 19.00791
-40.682373 -14.0625 16.654968
-40.094139 -14.0625 19.00791
-49.22794 -9.375 3.0882349
-49.613968 -10.9375 1.544117
-49.025734 -10.9375 3.897059
-49.613968 -7.8125 1.544117
-49.025734 -7.8125 3.897059
-45.3125 -10.9375 0
-43.596119 -10.9375 5
-45.3125 -7.8125 0
-43.596119 -7.8125 5
-48.051468 -9.375 7.794117
-48.4375 -10.9375 6.25
-47.849262 -10.9375 8.6029406
-48.4375 -7.8125 6.25
-47.849262 -7.8125 8.6029406
-43.402966 -10.9375 5.7726159
-47.66544 -10.9375 9.3382349
-43.402966 -7.8125 5.7726159
-47.66544 -7.8125 9.3382349
-49.22794 -3.125 3.0882349
-49.613968 -4.6875 1.544117
-49.025734 -4.6875 3.897059
-49.613968 -1.5625 1.544117
-49.025734 -1.5625 3.897059
-45.3125 -4.6875 0
-43.596119 -4.6874962 5
-45.3125 -1.5625 0
-43.596119 -1.5624959 5
-48.051468 -3.125 7.794117
-48.4375 -4.6875 6.25
-47.849262 -4.6875 8.6029406
-48.4375 -1.5625 6.25
-47.849262 -1.5625 8.6029406
-43.402966 -4.6875 5.7726159
-47.66544 -4.6875 9.3382349
-43.402966 -1.5625 5.7726159
-47.66544 -1.5625 9.3382349
-40.625 -9.375 0
-42.1875 -10.9375 0
-42.1875 -10.9375 5
-42.1875 -7.8125 0
-42.1875 -7.8125 5
-39.0625 -10.9375 0
-39.0625 -10.9375 5
-39.0625 -7.8125 0
-39.0625 -7.8125 5
-42.833111 -9.375 8.0520277
-43.219143 -10.9375 6.5079112
-42.630909 -10.9375 8.8608522
-43.219143 -7.8125 6.5079112
-42.630909 -7.8125 8.8608522
-39.0625 -10.9375 5
-42.447083 -10.9375 9.5961456
-39.0625 -7.8125 5
-42.447083 -7.8125 9.5961456
-40.625 -3.125 0
-42.1875 -4.6875 0
-42.1875 -4.6875 5
-42.1875 -1.5625 0
-42.1875 -1.5625 5
-39.0625 -4.6875 0
-39.0625 -4.6875 5
-39.0625 -1.5625 0
-39.0625 -1.5625 5
-42.833111 -3.125 8.0520277
-43.219143 -4.6875 6.5079112
-42.630909 -4.6875 8.8608522
-43.219143 -1.5625 6.5079112
-42.630909 -1.5625 8.8608522
-39.0625 -4.6875 5
-42.447083 -4.6875 9.5961456
-39.0625 -1.5625 5
-42.447083 -1.5625 9.5961456
-46.874996 -9.375 12.499999
-47.261028 -10.9375 10.955882
-46.672791 -10.9375 13.308823
-47.261028 -7.8125 10.955882
-46.672791 -7.8125 13.308823
-47.077206 -10.9375 11.691176
-46.488968 -10.9375 14.044117
-47.077206 -7.8125 11.691176
-46.488968 -7.8125 14.044117
-45.698528 -9.375 17.205881
-46.084557 -10.9375 15.661764
-45.496323 -10.9375 18.014706
-46.084557 -7.8125 15.661764
-45.496323 -7.8125 18.014706
-45.900734 -10.9375 16.397058
-45.3125 -10.9375 18.75
-45.900734 -7.8125 16.397058
-45.3125 -7.8125 18.75
-46.874996 -3.125 12.499999
-47.261028 -4.6875 10.955882
-46.672791 -4.6875 13.308823
-47.261028 -1.5625 10.955882
-46.672791 -1.5625 13.308823
-47.077206 -4.6875 11.691176
-46.488968 -4.6875 14.044117
-47.077206 -1.5625 11.691176
-46.488968 -1.5625 14.044117
-45.698528 -3.125 17.205881
-46.084557 -4.6875 15.661764
-45.496323 -4.6875 18.014706
-46.084557 -1.5625 15.661764
-45.496323 -1.5625 18.014706
-45.900734 -4.6875 16.397058
-45.3125 -4.6875 18.75
-45.900734 -1.5625 16.397058
-45.3125 -1.5625 18.75
-41.656639 -9.375 12.75791
-42.042667 -10.9375 11.213792
-41.454433 -10.9375 13.566733
-42.042667 -7.8125 11.213792
-41.454433 -7.8125 13.566733
-41.858845 -10.9375 11.949085
-41.270607 -10.9375 14.302027
-41.858845 -7.8125 11.949085
-41.270607 -7.8125 14.302027
-40.480167 -9.375 17.463793
-40.866199 -10.9375 15.919675
-40.277966 -10.9375 18.272615
-40.866199 -7.8125 15.919675
-40.277966 -7.8125 18.272615
-40.682373 -10.9375 16.654968
-40.094139 -10.9375 19.00791
-40.682373 -7.8125 16.654968
-40.094139 -7.8125 19.00791
-41.656639 -3.125 12.75791
-42.042667 -4.6875 11.213792
-41.454433 -4.6875 13.566733
-42.042667 -1.5625 11.213792
-41.454433 -1.5625 13.566733
-41.858845 -4.6875 11.949085
-41.270607 -4.6875 14.302027
-41.858845 -1.5625 11.949085
-41.270607 -1.5625 14.302027
-40.480167 -3.125 17.463793
-40.866199 -4.6875 15.919675
-40.277966 -4.6875 18.272615
-40.866199 -1.5625 15.919675
-40.277966 -1.5625 18.272615
-40.682373 -4.6875 16.654968
-40.094139 -4.6875 19.00791
-40.682373 -1.5625 16.654968
-40.094139 -1.5625 19.00791
-34.375 -21.875 5
-35.9375 -23.4375 0
-35.9375 -23.4375 5
-35.9375 -20.3125 0
-35.9375 -20.3125 5
-32.8125 -23.4375 0
-32.8125 -23.4375 5
-32.8125 -20.3125 0
-32.8125 -20.3125 5
-34.375 -21.875 5
-35.9375 -23.4375 5
-35.9375 -23.4375 5
-35.9375 -20.3125 5
-35.9375 -20.3125 5
-32.8125 -23.4375 5
-32.8125 -23.4375 5
-32.8125 -20.3125 5
-32.8125 -20.3125 5
-34.375 -15.625 0
-35.9375 -17.1875 0
-35.9375 -17.1875 5
-35.9375 -14.0625 0
-35.9375 -14.0625 5
-32.8125 -17.1875 0
-32.8125 -17.1875 5
-32.8125 -14.0625 0
-32.8125 -14.0625 5
-34.375 -15.625 5
-35.9375 -17.1875 5
-35.9375 -17.1875 5
-35.9375 -14.0625 5
-35.9375 -14.0625 5
-32.8125 -17.1875 5
-32.8125 -17.1875 5
-32.8125 -14.0625 5
-32.8125 -14.0625 5
-28.125 -21.875 5
-29.6875 -23.4375 0
-29.6875 -23.4375 5
-29.6875 -20.3125 0
-29.6875 -20.3125 5
-26.5625 -23.4375 0
-26.5625 -23.4375 5
-26.5625 -20.3125 0
-26.5625 -20.3125 5
-28.125 -21.875 5
-29.6875 -23.4375 5
-29.6875 -23.4375 5
-29.6875 -20.3125 5
-29.6875 -20.3125 5
-26.5625 -23.4375 5
-26.5625 -23.4375 5
-26.5625 -20.3125 5
-26.5625 -20.3125 5
-28.125 -15.625 0
-29.6875 -17.1875 0
-29.6875 -17.1875 5
-29.6875 -14.0625 0
-29.6875 -14.0625 5
-26.5625 -17.1875 0
-26.5625 -17.1875 5
-26.5625 -14.0625 0
-26.5625 -14.0625 5
-28.125 -15.625 5
-29.6875 -17.1875 5
-29.6875 -17.1875 5
-29.6875 -14.0625 5
-29.6875 -14.0625 5
-26.5625 -17.1875 5
-26.5625 -17.1875 5
-26.5625 -14.0625 5
-26.5625 -14.0625 5
-41.288994 -21.875 14.228498
-40.112526 -21.875 18.934381
-40.49855 -23.4375 17.390263
-39.910316 -23.4375 19.743204
-40.49855 -20.3125 17.390263
-39.910316 -20.3125 19.743204
-41.288994 -15.625 14.228498
-40.112526 -15.625 18.934381
-40.49855 -17.1875 17.390263
-39.910316 -17.1875 19.743204
-40.49855 -14.0625 17.390263
-39.910316 -14.0625 19.743204
-28.125 -21.875 5
-28.125 -15.625 5
-34.375 -9.375 0
-35.9375 -10.9375 0
-35.9375 -10.9375 5
-35.9375 -7.8125 0
-35.9375 -7.8125 5
-32.8125 -10.9375 0
-32.8125 -10.9375 5
-32.8125 -7.8125 0
-32.8125 -7.8125 5
-34.375 -9.375 5
-35.9375 -10.9375 5
-35.9375 -10.9375 5
-35.9375 -7.8125 5
-35.9375 -7.8125 5
-32.8125 -10.9375 5
-32.8125 -10.9375 5
-32.8125 -7.8125 5
-32.8125 -7.8125 5
-34.375 -3.125 0
-35.9375 -4.6875 0
-35.9375 -4.6875 5
-35.9375 -1.5625 0
-35.9375 -1.5625 5
-32.8125 -4.6875 0
-32.8125 -4.6875 5
-32.8125 -1.5625 0
-32.8125 -1.5625 5
-34.375 -3.125 5
-35.9375 -4.6875 5
-35.9375 -4.6875 5
-35.9375 -1.5625 5
-35.9375 -1.5625 5
-32.8125 -4.6875 5
-32.8125 -4.6875 5
-32.8125 -1.5625 5
-32.8125 -1.5625 5
-28.125 -9.375 0
-29.6875 -10.9375 0
-29.6875 -10.9375 5
-29.6875 -7.8125 0
-29.6875 -7.8125 5
-26.5625 -10.9375 0
-26.5625 -10.9375 5
-26.5625 -7.8125 0
-26.5625 -7.8125 5
-28.125 -9.375 5
-29.6875 -10.9375 5
-29.6875 -10.9375 5
-29.6875 -7.8125 5
-29.6875 -7.8125 5
-26.5625 -10.9375 5
-26.5625 -10.9375 5
-26.5625 -7.8125 5
-26.5625 -7.8125 5
-28.125 -3.125 0
-29.6875 -4.6875 0
-29.6875 -4.6875 5
-29.6875 -1.5625 0
-29.6875 -1.5625 5
-26.5625 -4.6875 0
-26.5625 -4.6875 5
-26.5625 -1.5625 0
-26.5625 -1.5625 5
-28.125 -3.125 5
-29.6875 -4.6875 5
-29.6875 -4.6875 5
-29.6875 -1.5625 5
-29.6875 -1.5625 5
-26.5625 -4.6875 5
-26.5625 -4.6875 5
-26.5625 -1.5625 5
-26.5625 -1.5625 5
-41.288994 -9.375 14.228498
-40.112526 -9.375 18.934381
-40.49855 -10.9375 17.390263
-39.910316 -10.9375 19.743204
-40.49855 -7.8125 17.390263
-39.910316 -7.8125 19.743204
-41.288994 -3.125 14.228498
-40.112526 -3.125 18.934381
-40.49855 -4.6875 17.390263
-39.910316 -4.6875 19.743204
-40.49855 -1.5625 17.390263
-39.910316 -1.5625 19.743204
-28.125 -9.375 5
-28.125 -3.125 5
-44.522057 -21.875 21.911764
-44.908089 -23.4375 20.367647
-44.319847 -23.4375 22.720587
-44.908089 -20.3125 20.367647
-44.319847 -20.3125 22.720587
-44.724266 -23.4375 21.102942
-44.136032 -23.4375 23.455883
-44.724266 -20.3125 21.102942
-44.136032 -20.3125 23.455883
-43.345585 -21.875 26.617645
-43.731613 -23.4375 25.073528
-43.731613 -20.3125 25.073528
-43.547791 -23.4375 25.808823
-42.959557 -23.4375 28.161764
-43.547791 -20.3125 25.808823
-42.959557 -20.3125 28.161764
-44.522057 -15.625 21.911764
-44.908089 -17.1875 20.367647
-44.319847 -17.1875 22.720587
-44.908089 -14.0625 20.367647
-44.319847 -14.0625 22.720587
-44.724266 -17.1875 21.102942
-44.136032 -17.1875 23.455883
-44.724266 -14.0625 21.102942
-44.136032 -14.0625 23.455883
-43.345585 -15.625 26.617645
-43.731613 -17.1875 25.073528
-43.731613 -14.0625 25.073528
-43.547791 -17.1875 25.808823
-42.959557 -17.1875 28.161764
-43.547791 -14.0625 25.808823
-42.959557 -14.0625 28.161764
-39.303699 -21.875 22.169676
-44.540443 -23.4375 21.838236
-43.952206 -23.4375 24.191175
-44.540443 -20.3125 21.838236
-43.952206 -20.3125 24.191175
-39.505905 -23.4375 21.360851
-38.917667 -23.4375 23.713793
-39.505905 -20.3125 21.360851
-38.917667 -20.3125 23.713793
-42.97794 -21.875 28.088234
-43.363968 -23.4375 26.544117
-42.775734 -23.4375 28.897058
-43.363968 -20.3125 26.544117
-42.775734 -20.3125 28.897058
-38.329433 -23.4375 26.066734
-37.741196 -23.4375 28.419674
-38.329433 -20.3125 26.066734
-37.741196 -20.3125 28.419674
-39.303699 -15.625 22.169676
-44.540443 -17.1875 21.838236
-43.952206 -17.1875 24.191175
-44.540443 -14.0625 21.838236
-43.952206 -14.0625 24.191175
-39.505905 -17.1875 21.360851
-38.917667 -17.1875 23.713793
-39.505905 -14.0625 21.360851
-38.917667 -14.0625 23.713793
-42.97794 -15.625 28.088234
-43.363968 -17.1875 26.544117
-42.775734 -17.1875 28.897058
-43.363968 -14.0625 26.544117
-42.775734 -14.0625 28.897058
-38.329433 -17.1875 26.066734
-37.741196 -17.1875 28.419674
-38.329433 -14.0625 26.066734
-37.741196 -14.0625 28.419674
-42.169113 -21.875 31.323528
-42.371323 -23.4375 30.514706
-41.783089 -23.4375 32.867645
-42.371323 -20.3125 30.514706
-41.783089 -20.3125 32.867645
-40.992645 -21.875 36.029411
-41.194855 -23.4375 35.220589
-40.606613 -23.4375 37.573528
-41.194855 -20.3125 35.220589
-40.606613 -20.3125 37.573528
-42.169113 -15.625 31.323528
-42.371323 -17.1875 30.514706
-41.783089 -17.1875 32.867645
-42.371323 -14.0625 30.514706
-41.783089 -14.0625 32.867645
-40.992645 -15.625 36.029411
-41.194855 -17.1875 35.220589
-40.606613 -17.1875 37.573528
-41.194855 -14.0625 35.220589
-40.606613 -14.0625 37.573528
-41.801468 -21.875 32.794117
-42.1875 -23.4375 31.25
-41.599266 -23.4375 33.60294
-42.1875 -20.3125 31.25
-41.599266 -20.3125 33.60294
-37.152962 -23.4375 30.772615
-41.41544 -23.4375 34.338234
-37.152962 -20.3125 30.772615
-41.41544 -20.3125 34.338234
-40.625 -21.875 37.5
-41.011032 -23.4375 35.955883
-40.422794 -23.4375 38.308823
-41.011032 -20.3125 35.955883
-40.422794 -20.3125 38.308823
-40.827206 -23.4375 36.691177
-40.238968 -23.4375 39.044117
-40.827206 -20.3125 36.691177
-40.238968 -20.3125 39.044117
-41.801468 -15.625 32.794117
-42.1875 -17.1875 31.25
-41.599266 -17.1875 33.60294
-42.1875 -14.0625 31.25
-41.599266 -14.0625 33.60294
-37.152962 -17.1875 30.772615
-41.41544 -17.1875 34.338234
-37.152962 -14.0625 30.772615
-41.41544 -14.0625 34.338234
-40.625 -15.625 37.5
-41.011032 -17.1875 35.955883
-40.422794 -17.1875 38.308823
-41.011032 -14.0625 35.955883
-40.422794 -14.0625 38.308823
-40.827206 -17.1875 36.691177
-40.238968 -17.1875 39.044117
-40.827206 -14.0625 36.691177
-40.238968 -14.0625 39.044117
-44.522057 -9.375 21.911764
-44.908089 -10.9375 20.367647
-44.319847 -10.9375 22.720587
-44.908089 -7.8125 20.367647
-44.319847 -7.8125 22.720587
-44.724266 -10.9375 21.102942
-44.136032 -10.9375 23.455883
-44.724266 -7.8125 21.102942
-44.136032 -7.8125 23.455883
-43.345585 -9.375 26.617645
-43.731613 -10.9375 25.073528
-43.731613 -7.8125 25.073528
-43.547791 -10.9375 25.808823
-42.959557 -10.9375 28.161764
-43.547791 -7.8125 25.808823
-42.959557 -7.8125 28.161764
-44.522057 -3.125 21.911764
-44.908089 -4.6875 20.367647
-44.319847 -4.6875 22.720587
-44.908089 -1.5625 20.367647
-44.319847 -1.5625 22.720587
-44.724266 -4.6875 21.102942
-44.136032 -4.6875 23.455883
-44.724266 -1.5625 21.102942
-44.136032 -1.5625 23.455883
-43.345585 -3.125 26.617645
-43.731613 -4.6875 25.073528
-43.731613 -1.5625 25.073528
-43.547791 -4.6875 25.808823
-42.959557 -4.6875 28.161764
-43.547791 -1.5625 25.808823
-42.959557 -1.5625 28.161764
-39.303699 -9.375 22.169676
-44.540443 -10.9375 21.838236
-43.952206 -10.9375 24.191175
-44.540443 -7.8125 21.838236
-43.952206 -7.8125 24.191175
-39.505905 -10.9375 21.360851
-38.917667 -10.9375 23.713793
-39.505905 -7.8125 21.360851
-38.917667 -7.8125 23.713793
-42.97794 -9.375 28.088234
-43.363968 -10.9375 26.544117
-42.775734 -10.9375 28.897058
-43.363968 -7.8125 26.544117
-42.775734 -7.8125 28.897058
-38.329433 -10.9375 26.066734
-37.741196 -10.9375 28.419674
-38.329433 -7.8125 26.066734
-37.741196 -7.8125 28.419674
-39.303699 -3.125 22.169676
-44.540443 -4.6875 21.838236
-43.952206 -4.6875 24.191175
-44.540443 -1.5625 21.838236
-43.952206 -1.5625 24.191175
-39.505905 -4.6875 21.360851
-38.917667 -4.6875 23.713793
-39.505905 -1.5625 21.360851
-38.917667 -1.5625 23.713793
-42.97794 -3.125 28.088234
-43.363968 -4.6875 26.544117
-42.775734 -4.6875 28.897058
-43.363968 -1.5625 26.544117
-42.775734 -1.5625 28.897058
-38.329433 -4.6875 26.066734
-37.741196 -4.6875 28.419674
-38.329433 -1.5625 26.066734
-37.741196 -1.5625 28.419674
-42.169113 -9.375 31.323528
-42.371323 -10.9375 30.514706
-41.783089 -10.9375 32.867645
-42.371323 -7.8125 30.514706
-41.783089 -7.8125 32.867645
-40.992645 -9.375 36.029411
-41.194855 -10.9375 35.220589
-40.606613 -10.9375 37.573528
-41.194855 -7.8125 35.220589
-40.606613 -7.8125 37.573528
-42.169113 -3.125 31.323528
-42.371323 -4.6875 30.514706
-41.783089 -4.6875 32.867645
-42.371323 -1.5625 30.514706
-41.783089 -1.5625 32.867645
-40.992645 -3.125 36.029411
-41.194855 -4.6875 35.220589
-40.606613 -4.6875 37.573528
-41.194855 -1.5625 35.220589
-40.606613 -1.5625 37.573528
-41.801468 -9.375 32.794117
-42.1875 -10.9375 31.25
-41.599266 -10.9375 33.60294
-42.1875 -7.8125 31.25
-41.599266 -7.8125 33.60294
-37.152962 -10.9375 30.772615
-41.41544 -10.9375 34.338234
-37.152962 -7.8125 30.772615
-41.41544 -7.8125 34.338234
-40.625 -9.375 37.5
-41.011032 -10.9375 35.955883
-40.422794 -10.9375 38.308823
-41.011032 -7.8125 35.955883
-40.422794 -7.8125 38.308823
-40.827206 -10.9375 36.691177
-40.238968 -10.9375 39.044117
-40.827206 -7.8125 36.691177
-40.238968 -7.8125 39.044117
-41.801468 -3.125 32.794117
-42.1875 -4.6875 31.25
-41.599266 -4.6875 33.60294
-42.1875 -1.5625 31.25
-41.599266 -1.5625 33.60294
-37.152962 -4.6875 30.772615
-41.41544 -4.6875 34.338234
-37.152962 -1.5625 30.772615
-41.41544 -1.5625 34.338234
-40.625 -3.125 37.5
-41.011032 -4.6875 35.955883
-40.422794 -4.6875 38.308823
-41.011032 -1.5625 35.955883
-40.422794 -1.5625 38.308823
-40.827206 -4.6875 36.691177
-40.238968 -4.6875 39.044117
-40.827206 -1.5625 36.691177
-40.238968 -1.5625 39.044117
-38.936054 -21.875 23.640263
-39.322083 -23.4375 22.096146
-38.733849 -23.4375 24.449087
-39.322083 -20.3125 22.096146
-38.733849 -20.3125 24.449087
-37.759583 -21.875 28.346146
-38.145611 -23.4375 26.802029
-37.557377 -23.4375 29.15497
-38.145611 -20.3125 26.802029
-37.557377 -20.3125 29.15497
-37.37355 -23.4375 29.890263
-37.37355 -20.3125 29.890263
-38.936054 -15.625 23.640263
-39.322083 -17.1875 22.096146
-38.733849 -17.1875 24.449087
-39.322083 -14.0625 22.096146
-38.733849 -14.0625 24.449087
-37.759583 -15.625 28.346146
-38.145611 -17.1875 26.802029
-37.557377 -17.1875 29.15497
-38.145611 -14.0625 26.802029
-37.557377 -14.0625 29.15497
-37.37355 -17.1875 29.890263
-37.37355 -14.0625 29.890263
-37.391937 -21.875 29.816734
-37.391937 -15.625 29.816734
-36.583111 -21.875 33.052029
-36.969139 -23.4375 31.50791
-36.380905 -23.4375 33.860851
-36.969139 -20.3125 31.50791
-36.380905 -20.3125 33.860851
-36.785316 -23.4375 32.243202
-36.197083 -23.4375 34.596146
-36.785316 -20.3125 32.243202
-36.197083 -20.3125 34.596146
-35.406643 -21.875 37.757912
-35.792667 -23.4375 36.213791
-35.204433 -23.4375 38.566734
-35.792667 -20.3125 36.213791
-35.204433 -20.3125 38.566734
-35.608849 -23.4375 36.949085
-35.020611 -23.4375 39.302029
-35.608849 -20.3125 36.949085
-35.020611 -20.3125 39.302029
-36.583111 -15.625 33.052029
-36.969139 -17.1875 31.50791
-36.380905 -17.1875 33.860851
-36.969139 -14.0625 31.50791
-36.380905 -14.0625 33.860851
-36.785316 -17.1875 32.243202
-36.197083 -17.1875 34.596146
-36.785316 -14.0625 32.243202
-36.197083 -14.0625 34.596146
-35.406643 -15.625 37.757912
-35.792667 -17.1875 36.213791
-35.204433 -17.1875 38.566734
-35.792667 -14.0625 36.213791
-35.204433 -14.0625 38.566734
-35.608849 -17.1875 36.949085
-35.020611 -17.1875 39.302029
-35.608849 -14.0625 36.949085
-35.020611 -14.0625 39.302029
-36.215462 -21.875 34.522617
-35.038994 -21.875 39.228497
-36.215462 -15.625 34.522617
-35.038994 -15.625 39.228497
-38.936054 -9.375 23.640263
-39.322083 -10.9375 22.096146
-38.733849 -10.9375 24.449087
-39.322083 -7.8125 22.096146
-38.733849 -7.8125 24.449087
-37.759583 -9.375 28.346146
-38.145611 -10.9375 26.802029
-37.557377 -10.9375 29.15497
-38.145611 -7.8125 26.802029
-37.557377 -7.8125 29.15497
-37.37355 -10.9375 29.890263
-37.37355 -7.8125 29.890263
-38.936054 -3.125 23.640263
-39.322083 -4.6875 22.096146
-38.733849 -4.6875 24.449087
-39.322083 -1.5625 22.096146
-38.733849 -1.5625 24.449087
-37.759583 -3.125 28.346146
-38.145611 -4.6875 26.802029
-37.557377 -4.6875 29.15497
-38.145611 -1.5625 26.802029
-37.557377 -1.5625 29.15497
-37.37355 -4.6875 29.890263
-37.37355 -1.5625 29.890263
-37.391937 -9.375 29.816734
-37.391937 -3.125 29.816734
-36.583111 -9.375 33.052029
-36.969139 -10.9375 31.50791
-36.380905 -10.9375 33.860851
-36.969139 -7.8125 31.50791
-36.380905 -7.8125 33.860851
-36.785316 -10.9375 32.243202
-36.197083 -10.9375 34.596146
