# .PCD v0.7 - Point Cloud Data file format
VERSION 0.7
FIELDS x y z
SIZE 4 4 4
TYPE F F F
COUNT 1 1 1
WIDTH 1628
HEIGHT 1
VIEWPOINT 0 0 0 1 0 0 0
POINTS 1628
DATA ascii
15.63246 6.1837592 14.162332
17.562922 4.1409268 11.587362
17.048845 3.844126 13.937424
16.791807 5.5901561 11.362454
16.277731 5.293354 13.712516
15.569538 4.5687389 17.57497
15.889498 4.4377289 16.737301
15.375422 4.1409268 19.087362
15.118383 5.8869572 16.512394
14.604308 5.5901561 18.862453
16.534769 3.5473239 16.287485
16.020695 3.2505219 18.637547
15.763656 4.996552 16.062576
15.24958 4.6997499 18.412638
15.055462 8.0607986 12.425031
15.37542 7.9297881 11.587362
14.861344 7.6329861 13.937424
14.604308 9.3790169 11.362454
14.090232 9.0822153 13.712516
16.020695 7.0393829 11.137547
15.506618 6.7425809 13.487607
15.24958 8.4886112 10.912638
14.735504 8.1918097 13.262699
14.02731 7.467196 17.125153
14.347268 7.336185 16.287485
13.833192 7.039382 18.637547
13.576156 8.7854128 16.062576
13.06208 8.4886112 18.412638
14.992542 6.4457798 15.837668
14.478466 6.1489782 18.187729
14.221428 7.8950081 15.612761
13.707353 7.598206 17.962822
12.474373 4.0446982 29.224297
2.1875 -10.280628 39.299267
11.960298 -0.040964998 39.074356
11.44622 3.4510939 33.924419
10.418069 2.857491 38.624542
10.612187 3.2853031 37.112148
10.098111 2.988502 39.462208
8.0993729 11.622421 29.224297
11.960297 7.536757 24.074358
10.932145 6.9431539 28.774479
10.612185 7.0741639 29.612148
10.418069 10.435214 23.62454
10.612187 10.863026 22.112148
10.098109 10.566223 24.46221
9.3899174 9.84161 28.324663
8.4246845 10.863026 29.612148
10.355149 8.8201942 27.037178
9.841073 8.5233927 29.387239
9.584034 10.269422 26.812271
9.0699577 9.97262 29.162331
7.5852971 7.536757 39.074356
7.0712209 11.028817 33.924419
6.0430689 10.435214 38.624542
6.237185 10.863026 37.112148
5.7231088 10.566223 39.462208
9.9039936 6.3495498 33.474602
10.355149 5.031333 34.537178
10.098109 6.7773619 31.96221
9.584034 6.4805598 34.312271
8.8758411 5.7559471 38.174725
8.4246845 7.0741639 37.112148
7.9106088 6.7773619 39.462208
9.841073 4.7345309 36.887241
9.3269978 4.4377289 39.237301
9.0699577 6.1837578 36.662331
8.5558825 5.8869572 39.012394
8.3617659 9.2480068 33.024784
8.1676493 8.8201942 34.537178
7.9106088 10.566223 31.96221
7.396534 10.269422 34.312271
9.3269978 8.2265911 31.737301
8.8129215 7.9297891 34.087364
8.5558825 9.6758165 31.512392
8.0418062 9.3790159 33.862453
7.3336139 8.6544027 37.724907
7.653573 8.5233927 36.887241
7.1394968 8.2265911 39.237301
6.8824582 9.97262 36.662331
6.368382 9.6758165 39.012394
8.2988453 7.632987 36.437424
7.78477 7.336185 38.787483
7.52773 9.0822144 36.212517
7.0136542 8.7854118 38.562576
16.335297 -0.040964998 24.074358
15.307145 -0.63456899 28.774479
14.987185 -0.50355899 29.612148
14.793069 2.857491 23.62454
14.987187 3.2853031 22.112148
14.473109 2.9885011 24.46221
13.764917 2.2638869 28.324663
12.799685 3.2853019 29.612148
14.730149 1.2424721 27.037178
14.216073 0.94567001 29.387239
13.959034 2.691699 26.812271
13.444958 2.394897 29.162331
17.625841 -1.821776 23.174725
17.174686 -0.50355798 22.112148
16.66061 -0.80036098 24.46221
18.591074 -2.8431921 21.887239
18.076998 -3.139993 24.237301
17.81996 -1.3939641 21.662333
17.305882 -1.690766 24.012392
16.597691 -2.41538 27.874847
16.917648 -2.5463901 27.037178
16.403574 -2.8431921 29.387239
16.146534 -1.097163 26.812271
15.632458 -1.393965 29.162331
17.562922 -3.436795 26.587362
17.048845 -3.733597 28.937424
16.791805 -1.987568 26.362453
16.277731 -2.2843699 28.712515
16.083614 1.0766799 22.724909
16.403574 0.94567001 21.887239
15.889498 0.64886802 24.237301
15.63246 2.3948979 21.662333
15.118382 2.0980949 24.012392
17.048845 0.055264 21.437424
16.534769 -0.241538 23.787485
16.277731 1.504492 21.212515
15.763655 1.207689 23.562576
15.055462 0.48307601 27.42503
15.375422 0.35206601 26.587362
14.861345 0.055264 28.937424
14.604306 1.801293 26.362453
14.09023 1.504491 28.712515
16.020695 -0.53833902 26.137547
15.506618 -0.835141 28.487608
15.249578 0.91088802 25.912638
14.735502 0.61408597 28.262699
14.278994 -1.2281719 33.474602
14.730149 -2.5463901 34.537178
14.473109 -0.80036098 31.96221
13.959034 -1.097163 34.312271
13.250841 -1.821776 38.174725
12.799685 -0.50355899 37.112148
12.285609 -0.80036098 39.462208
14.216073 -2.8431921 36.887241
13.701998 -3.139993 39.237301
13.444958 -1.393965 36.662331
12.930882 -1.690766 39.012394
12.736766 1.670283 33.024784
12.542649 1.2424721 34.537178
12.285609 2.9885011 31.96221
11.771534 2.691699 34.312271
13.701998 0.64886802 31.737301
13.187922 0.35206601 34.087364
12.930882 2.0980949 31.512392
12.416806 1.801293 33.862453
11.708613 1.0766799 37.724907
12.028573 0.94567001 36.887241
11.514498 0.64886802 39.237301
11.257458 2.394897 36.662331
10.743382 2.0980949 39.012394
12.673845 0.055264 36.437424
12.15977 -0.241538 38.787483
11.90273 1.504491 36.212517
11.388655 1.207689 38.562576
15.569538 -3.0089829 32.57497
15.889498 -3.139993 31.737301
15.375422 -3.436795 34.087364
15.118382 -1.690766 31.512392
14.604306 -1.987568 33.862453
16.534769 -4.0303988 31.287485
16.020695 -4.3272009 33.637547
15.763655 -2.581172 31.062576
15.249578 -2.877974 33.412636
14.541387 -3.602587 37.275093
14.861345 -3.733597 36.437424
14.34727 -4.0303988 38.787483
14.09023 -2.2843699 36.212517
13.576155 -2.581172 38.562576
15.506618 -4.6240029 35.987606
14.992542 -4.920805 38.337669
14.735502 -3.1747761 35.762699
14.221427 -3.4715769 38.112759
14.02731 -0.110528 32.125153
14.34727 -0.241538 31.287485
13.833194 -0.53833902 33.637547
13.576155 1.207689 31.062576
13.062078 0.91088802 33.412636
14.992542 -1.131943 30.837669
14.478466 -1.428745 33.187729
14.221427 0.31728399 30.612761
13.707351 0.020482 32.962822
12.999159 -0.70413101 36.825275
13.319118 -0.835141 35.987606
12.805042 -1.131943 38.337669
12.548002 0.61408597 35.762699
12.033927 0.31728399 38.112759
13.964391 -1.725547 35.537792
13.450315 -2.0223491 37.887852
13.250841 5.7559471 23.174725
12.799687 7.0741649 22.112148
12.285609 6.7773619 24.46221
14.216073 4.7345309 21.887239
13.701998 4.4377289 24.237301
13.44496 6.1837592 21.662333
12.930882 5.8869572 24.012392
12.22269 5.162343 27.874847
12.542649 5.031333 27.037178
12.028573 4.7345309 29.387239
11.771534 6.4805598 26.812271
11.257458 6.1837578 29.162331
13.187922 4.1409268 26.587362
12.673845 3.844126 28.937424
12.416806 5.5901551 26.362453
11.90273 5.2933531 28.712515
11.708613 8.6544027 22.724909
12.028572 8.5233917 21.887239
11.514496 8.2265902 24.237301
11.257458 9.97262 21.662331
10.743382 9.6758165 24.012392
12.673844 7.6329861 21.437424
12.159768 7.336185 23.787485
11.90273 9.0822144 21.212515
11.388655 8.7854118 23.562576
10.680462 8.0607986 27.42503
11.00042 7.9297881 26.587362
10.486344 7.6329861 28.937424
10.229306 9.3790159 26.362453
9.71523 9.0822144 28.712515
11.645692 7.039382 26.137547
11.131617 6.7425799 28.487606
10.874578 8.4886103 25.912638
10.360502 8.1918087 28.262699
14.541387 3.9751351 22.275091
14.861345 3.844126 21.437424
14.34727 3.5473239 23.787485
14.090232 5.293354 21.212515
13.576155 4.996551 23.562576
15.506618 2.9537201 20.987608
14.992542 2.656918 23.337669
14.735504 4.4029479 20.762699
14.221427 4.1061449 23.112761
13.513234 3.381532 26.975214
13.833194 3.2505219 26.137547
13.319118 2.9537201 28.487608
13.062078 4.699749 25.912638
12.548002 4.4029469 28.262699
14.478466 2.360116 25.687729
13.964391 2.063314 28.03779
13.707351 3.8093441 25.462822
12.999159 6.8735909 21.825275
13.319117 6.7425799 20.987606
12.80504 6.4457788 23.337667
12.548004 8.1918097 20.762699
12.033927 7.8950071 23.112761
13.964391 5.8521762 20.53779
13.450315 5.5553741 22.887852
11.971006 6.2799878 26.525398
12.290965 6.1489768 25.687729
11.776889 5.8521752 28.03779
11.519851 7.5982051 25.462822
11.194538 4.5687389 32.57497
11.514498 4.4377289 31.737301
11.000422 4.1409268 34.087364
10.743382 5.8869572 31.512392
10.229306 5.5901551 33.862453
12.15977 3.5473239 31.287485
11.645694 3.2505219 33.637547
11.388655 4.996551 31.062576
10.874578 4.699749 33.412636
10.166387 3.9751351 37.275093
10.486345 3.844126 36.437424
9.97227 3.5473239 38.787483
9.71523 5.2933531 36.212517
9.2011547 4.996551 38.562576
11.131618 2.9537201 35.987606
10.617542 2.656918 38.337669
10.360502 4.4029469 35.762699
9.846427 4.1061449 38.112759
9.6523104 7.467196 32.125153
9.9722681 7.336185 31.287485
9.4581919 7.039382 33.637547
9.2011547 8.7854118 31.062576
8.6870785 8.4886103 33.412636
10.61754 6.4457788 30.837667
10.103465 6.1489768 33.187729
9.846427 7.8950071 30.612761
9.3323507 7.5982051 32.962822
8.6241589 6.8735909 36.825275
8.9441166 6.7425799 35.987606
8.4300404 6.4457788 38.337669
8.1730022 8.1918087 35.762699
7.658927 7.8950071 38.112759
9.5893888 5.8521752 35.537792
9.0753126 5.5553732 37.887852
12.485083 2.7879281 31.675337
12.805042 2.656918 30.837669
12.290966 2.360116 33.187729
12.033927 4.1061449 30.612761
11.519851 3.8093441 32.962822
13.450315 1.766513 30.387852
11.456931 2.194324 36.375458
11.776891 2.063314 35.537792
11.262815 1.766513 37.887852
10.942855 5.6863842 31.225521
11.262813 5.5553732 30.387852
9.9147034 5.0927811 35.925644
19.6875 -19.500036 2.7998769
18.59375 -19.853647 1.3999389
18.59375 -19.260044 3.75
18.59375 -17.365616 0
18.59375 -19.146425 4.1998162
20.78125 -19.853647 1.3999389
20.78125 -19.260044 3.75
20.78125 -17.365616 0
20.78125 -19.146425 4.1998162
19.6875 -18.312828 7.5
18.59375 -18.666441 6.1000609
18.59375 -18.072836 8.4501228
18.59375 -18.552822 6.5498772
18.59375 -17.959217 8.8999386
20.78125 -18.666441 6.1000609
20.78125 -18.072836 8.4501228
20.78125 -18.552822 6.5498772
20.78125 -17.959217 8.8999386
19.6875 -14.52397 0
18.59375 -15.471185 0
18.59375 -19.032806 4.649632
18.59375 -13.576755 0
18.59375 -13.576755 0
20.78125 -15.471185 0
20.78125 -19.032806 4.649632
20.78125 -13.576755 0
20.78125 -13.576755 0
19.6875 -18.08559 8.3996325
18.59375 -18.439201 6.9996929
18.59375 -17.845598 9.3497543
20.78125 -18.439201 6.9996929
20.78125 -17.845598 9.3497543
24.0625 -19.500036 2.7998769
22.96875 -19.853647 1.3999389
22.96875 -19.260044 3.75
22.96875 -17.365616 0
22.96875 -19.146425 4.1998162
25.15625 -19.853647 1.3999389
25.15625 -19.260044 3.75
25.15625 -17.365616 0
25.15625 -19.146425 4.1998162
24.0625 -18.312828 7.5
22.96875 -18.666441 6.1000609
22.96875 -18.072836 8.4501228
22.96875 -18.552822 6.5498772
22.96875 -17.959217 8.8999386
25.15625 -18.666441 6.1000609
25.15625 -18.072836 8.4501228
25.15625 -18.552822 6.5498772
25.15625 -17.959217 8.8999386
24.0625 -14.52397 0
22.96875 -15.471185 0
22.96875 -19.032806 4.649632
22.96875 -13.576755 0
22.96875 -13.576755 0
25.15625 -15.471185 0
25.15625 -19.032806 4.649632
25.15625 -13.576755 0
25.15625 -13.576755 0
24.0625 -18.08559 8.3996325
22.96875 -18.439201 6.9996929
22.96875 -17.845598 9.3497543
25.15625 -18.439201 6.9996929
25.15625 -17.845598 9.3497543
28.112186 -11.870144 7.1121478
27.59811 -12.166945 9.4622097
19.6875 -17.12562 12.200122
18.59375 -17.479233 10.800183
18.59375 -16.88563 13.150245
18.59375 -17.365614 11.25
18.59375 -16.772011 13.60006
20.78125 -17.479233 10.800183
20.78125 -16.88563 13.150245
20.78125 -17.365614 11.25
20.78125 -16.772011 13.60006
19.6875 -15.938414 16.900244
18.59375 -16.292027 15.500306
18.59375 -15.698421 17.850367
18.59375 -16.178406 15.950122
18.59375 -15.584803 18.300182
20.78125 -16.292027 15.500306
20.78125 -15.698421 17.850367
20.78125 -16.178406 15.950122
20.78125 -15.584803 18.300182
19.6875 -16.898382 13.099754
18.59375 -17.251993 11.699816
18.59375 -16.65839 14.049877
18.59375 -17.138374 12.149632
18.59375 -16.544771 14.499694
20.78125 -17.251993 11.699816
20.78125 -16.65839 14.049877
20.78125 -17.138374 12.149632
20.78125 -16.544771 14.499694
19.6875 -15.711175 17.799877
18.59375 -16.064787 16.399939
18.59375 -15.471183 18.75
18.59375 -15.951168 16.849754
18.59375 -15.357564 19.199816
20.78125 -16.064787 16.399939
20.78125 -15.471183 18.75
20.78125 -15.951168 16.849754
20.78125 -15.357564 19.199816
24.0625 -17.12562 12.200122
22.96875 -17.479233 10.800183
22.96875 -16.88563 13.150245
22.96875 -17.365614 11.25
22.96875 -16.772011 13.60006
25.15625 -17.479233 10.800183
25.15625 -16.88563 13.150245
25.15625 -17.365614 11.25
25.15625 -16.772011 13.60006
24.0625 -15.938414 16.900244
22.96875 -16.292027 15.500306
22.96875 -15.698421 17.850367
22.96875 -16.178406 15.950122
22.96875 -15.584803 18.300182
25.15625 -16.292027 15.500306
25.15625 -15.698421 17.850367
25.15625 -16.178406 15.950122
25.15625 -15.584803 18.300182
24.0625 -16.898382 13.099754
22.96875 -17.251993 11.699816
22.96875 -16.65839 14.049877
22.96875 -17.138374 12.149632
22.96875 -16.544771 14.499694
25.15625 -17.251993 11.699816
25.15625 -16.65839 14.049877
27.084036 -12.463747 11.812271
26.56996 -12.760549 14.162332
24.0625 -15.711175 17.799877
22.96875 -16.064787 16.399939
22.96875 -15.471183 18.75
22.96875 -15.951168 16.849754
22.96875 -15.357564 19.199816
25.15625 -16.064787 16.399939
25.15625 -15.471183 18.75
26.055883 -13.057351 16.512394
25.541807 -13.354153 18.862453
19.6875 -10.735107 0
18.59375 -11.682323 0
18.59375 -11.682323 0
18.59375 -9.7878923 0
18.59375 -9.7878923 0
20.78125 -11.682323 0
20.78125 -11.682323 0
20.78125 -9.7878923 0
20.78125 -9.7878923 0
25.085297 -7.6186881 9.074358
19.6875 -6.9462461 0
18.59375 -7.8934612 0
18.59375 -7.8934612 0
18.59375 -5.9990301 0
18.59375 -5.9990301 0
20.78125 -7.8934612 0
20.78125 -7.8934612 0
20.78125 -5.9990301 0
20.78125 -5.9990301 0
23.54307 -4.720232 8.6245413
23.737186 -4.2924199 7.1121478
23.22311 -4.589222 9.4622087
24.0625 -10.735107 0
22.96875 -11.682323 0
22.96875 -11.682323 0
22.96875 -9.7878923 0
22.96875 -9.7878923 0
25.15625 -11.682323 0
27.855148 -10.124112 4.537179
25.15625 -9.7878923 0
27.084036 -8.6748848 4.3122711
26.375841 -9.3994989 8.1747246
25.924686 -8.0812817 7.1121478
25.41061 -8.3780832 9.4622097
27.341074 -10.420914 6.8872399
26.826998 -10.717716 9.2373009
26.56996 -8.9716864 6.6623321
26.055883 -9.2684889 9.012393
25.861765 -5.9074392 3.024786
22.96875 -7.8934612 0
25.667648 -6.3352509 4.537179
22.96875 -5.9990301 0
24.896536 -4.886023 4.3122711
25.15625 -7.8934612 0
26.312922 -7.225657 4.0873628
26.055883 -5.4796271 1.512393
25.541807 -5.7764282 3.8624539
24.833614 -6.5010428 7.7249079
25.153574 -6.6320529 6.8872399
24.639498 -6.9288549 9.2373009
24.38246 -5.1828251 6.6623321
23.868383 -5.4796271 9.012393
25.798845 -7.522459 6.4374242
25.284769 -7.8192601 8.7874851
25.027731 -6.0732298 6.2125149
24.513657 -6.3700318 8.5625763
24.057144 -8.2122917 13.77448
23.737186 -8.0812817 14.612148
23.028994 -8.8058958 18.474602
18.59375 -15.243944 19.649633
23.480148 -10.124112 19.537178
23.22311 -8.3780832 16.96221
22.709036 -8.6748848 19.312271
22.514917 -5.3138361 13.324663
21.549686 -4.292419 14.612148
23.480148 -6.3352509 12.037179
22.966074 -6.6320529 14.38724
22.709034 -4.886024 11.81227
22.194958 -5.182826 14.162332
21.486765 -5.9074392 18.024786
21.292648 -6.3352509 19.537178
21.03561 -4.589221 16.96221
20.521536 -4.886023 19.312271
22.451998 -6.9288549 16.737301
21.937922 -7.225657 19.087362
21.680882 -5.4796271 16.512392
21.166805 -5.7764292 18.862453
25.347691 -9.993103 12.874847
25.667648 -10.124112 12.037179
25.153574 -10.420914 14.38724
24.896536 -8.6748848 11.812271
24.38246 -8.9716864 14.162332
26.312922 -11.014518 11.587362
25.798845 -11.311319 13.937424
25.541807 -9.5652905 11.362454
25.027731 -9.862092 13.712516
24.319538 -10.586706 17.57497
24.639498 -10.717716 16.737301
24.125422 -11.014518 19.087362
23.868383 -9.2684889 16.512394
23.354307 -9.5652905 18.862453
25.284769 -11.608122 16.287485
24.770695 -11.904923 18.637547
24.513657 -10.158895 16.062576
23.99958 -10.455696 18.412638
23.805462 -7.094646 12.425031
24.125422 -7.225657 11.587362
23.611345 -7.522459 13.937424
23.354307 -5.7764282 11.362454
22.840231 -6.0732298 13.712516
24.770695 -8.1160622 11.137547
24.256618 -8.4128637 13.487607
23.99958 -6.6668339 10.912638
23.485504 -6.963635 13.262699
22.777309 -7.688251 17.125153
23.097269 -7.8192601 16.287485
22.583195 -8.1160622 18.637547
22.326157 -6.3700318 16.062576
21.81208 -6.6668339 18.412638
23.742542 -8.7096663 15.837668
23.228466 -9.0064678 18.187729
22.971428 -7.260437 15.612761
22.457352 -7.55724 17.962822
28.4375 -19.500036 2.7998769
27.34375 -19.853647 1.3999389
27.34375 -19.260044 3.75
27.34375 -17.365616 0
27.34375 -19.146425 4.1998162
29.53125 -19.853647 1.3999389
29.53125 -19.260044 3.75
29.53125 -17.365616 0
29.53125 -19.146425 4.1998162
28.4375 -18.312828 7.5
27.34375 -18.666441 6.1000609
27.34375 -18.072836 8.4501228
27.34375 -18.552822 6.5498772
27.34375 -17.959217 8.8999386
29.53125 -18.666441 6.1000609
29.53125 -18.072836 8.4501228
29.53125 -18.552822 6.5498772
29.53125 -17.959217 8.8999386
30.236767 -13.485163 3.024786
27.34375 -15.471185 0
30.042648 -13.912974 4.537179
27.34375 -13.576755 0
29.271536 -12.463747 4.3122711
29.53125 -15.471185 0
30.687922 -14.80338 4.0873628
30.430883 -13.057351 1.512393
29.916807 -13.354153 3.8624539
29.208616 -14.078766 7.7249088
29.528574 -14.209776 6.8872399
29.014498 -14.506578 9.2373009
28.75746 -12.760549 6.6623321
28.243383 -13.057351 9.012393
30.173845 -15.100182 6.4374242
29.659769 -15.396984 8.7874851
29.402731 -13.650954 6.2125149
28.888657 -13.947757 8.5625763
33.069538 -18.164429 2.57497
31.71875 -19.853647 1.3999389
31.71875 -19.260044 3.75
32.618385 -16.846212 1.512393
32.104309 -17.143015 3.8624539
34.034771 -19.185843 1.287485
33.442768 -19.308191 3.5593879
33.263657 -17.736618 1.062577
32.74958 -18.033419 3.4126379
31.885536 -18.409122 7.1187758
31.71875 -18.666441 6.1000609
31.366459 -18.109434 8.3052387
31.590231 -17.439816 6.2125149
31.076157 -17.736618 8.5625763
32.5714 -18.805107 5.5510888
31.700029 -18.302021 7.5427928
32.235504 -18.330221 5.7626991
31.533245 -18.205729 7.9240112
31.527311 -15.265973 2.125154
31.847269 -15.396984 1.287485
31.333195 -15.693786 3.6375461
31.076157 -13.947757 1.062577
30.56208 -14.244558 3.4126379
32.492542 -16.28739 0.83766901
31.978466 -16.58419 3.1877301
31.721428 -14.838161 0.61276001
31.207352 -15.134964 2.962821
30.499161 -15.859577 6.8252759
30.819118 -15.990587 5.987607
30.305042 -16.28739 8.3376684
30.048004 -14.54136 5.7626991
29.533928 -14.838161 8.1127605
31.46439 -16.880993 5.5377908
30.950314 -17.177795 7.8878522
28.4375 -17.12562 12.200122
27.34375 -17.479233 10.800183
27.34375 -16.88563 13.150245
27.34375 -17.365614 11.25
27.34375 -16.772011 13.60006
29.53125 -17.479233 10.800183
29.29015 -16.910675 13.051089
29.53125 -17.365614 11.25
29.123363 -16.814383 13.432313
27.732916 -16.011608 16.610477
27.34375 -16.292027 15.500306
27.213839 -15.711918 17.79694
27.34375 -16.178406 15.950122
27.047054 -15.615624 18.178162
28.418779 -16.407591 15.042793
28.251995 -16.311296 15.424011
27.380625 -15.808211 17.415716
28.180464 -14.67237 12.425031
28.500422 -14.80338 11.587362
27.986345 -15.100182 13.937424
27.729307 -13.354153 11.362454
27.215231 -13.650954 13.712516
29.145695 -15.693786 11.137547
28.631618 -15.990587 13.487607
28.37458 -14.244558 10.912638
27.860504 -14.54136 13.262699
27.152311 -15.265973 17.125153
27.472269 -15.396984 16.287485
26.880268 -15.51933 18.559387
26.701157 -13.947757 16.062576
26.18708 -14.244558 18.412638
28.085209 -16.215004 15.805239
27.213839 -15.711918 17.79694
27.346428 -14.838161 15.612761
26.832352 -15.134964 17.962822
30.142797 -17.402952 11.102179
30.495089 -17.606348 10.296944
29.62372 -17.103264 12.288641
30.328304 -17.510056 10.678164
29.456934 -17.006969 12.669865
30.828659 -17.798935 9.5344915
30.661875 -17.702642 9.9157152
28.400057 -16.396782 15.085587
28.585566 -16.503885 14.661568
29.471008 -16.45318 11.525398
29.790966 -16.58419 10.68773
29.27689 -16.880993 13.037791
29.019852 -15.134964 10.462822
28.066486 -16.204193 15.84803
28.418779 -16.407591 15.042793
28.694538 -10.586706 2.5749691
27.34375 -11.682323 0
28.500422 -11.014518 4.0873628
28.243383 -9.2684889 1.512393
27.729307 -9.5652905 3.8624539
29.659769 -11.608122 1.287485
29.145695 -11.904923 3.6375461
28.888657 -10.158895 1.062577
28.37458 -10.455696 3.4126379
27.666386 -11.18031 7.2750921
27.986345 -11.311319 6.4374242
27.472269 -11.608122 8.7874851
27.215231 -9.862092 6.2125149
26.701157 -10.158895 8.5625763
28.631618 -12.201725 5.987607
28.117542 -12.498528 8.3376684
27.860504 -10.752498 5.7626991
27.346428 -11.049299 8.1127605
27.152309 -7.688251 2.1251531
27.472269 -7.8192601 1.287485
26.958195 -8.1160622 3.6375461
26.701157 -6.3700318 1.062577
26.18708 -6.6668339 3.4126379
28.117542 -8.7096663 0.83766901
27.603466 -9.0064678 3.1877301
27.346428 -7.260437 0.61276001
26.832352 -7.55724 2.962821
26.124159 -8.2818537 6.8252749
26.444118 -8.4128637 5.987607
25.930042 -8.7096663 8.3376684
25.673004 -6.963635 5.7626991
25.158928 -7.260437 8.1127605
27.08939 -9.3032694 5.5377908
26.575314 -9.600071 7.8878522
29.985083 -12.367517 1.675337
30.305042 -12.498528 0.83766901
29.790966 -12.795329 3.1877301
29.533928 -11.049299 0.61276001
29.019852 -11.346102 2.962821
30.950314 -13.388933 0.38785201
28.95693 -12.961122 6.3754592
29.27689 -13.092131 5.5377908
28.762814 -13.388933 7.8878522
28.442856 -9.4690609 1.22552
28.762814 -9.600071 0.38785201
27.414703 -10.062665 5.925642
26.638235 -11.773914 11.975214
26.958195 -11.904923 11.137547
26.444118 -12.201725 13.487607
26.18708 -10.455696 10.912638
25.673004 -10.752498 13.262699
27.603466 -12.795329 10.68773
27.08939 -13.092131 13.037791
26.832352 -11.346102 10.462822
25.610083 -12.367517 16.675337
25.930042 -12.498528 15.837668
25.415966 -12.795329 18.187729
25.158928 -11.049299 15.612761
24.644852 -11.346102 17.962822
26.575314 -13.388933 15.387852
25.096006 -8.8754578 11.525398
25.415966 -9.0064678 10.68773
24.90189 -9.3032694 13.037791
24.644852 -7.55724 10.462822
24.067856 -9.4690609 16.225521
24.387814 -9.600071 15.387852
27.92878 -13.554725 11.075582
26.900627 -14.148329 15.775703
19.6875 -14.751205 21.600367
18.59375 -14.991199 20.650244
18.59375 -14.397595 23.000305
20.78125 -14.991199 20.650244
20.78125 -14.397595 23.000305
19.6875 -13.563999 26.300489
18.59375 -13.803991 25.350367
20.78125 -13.803991 25.350367
19.6875 -14.523968 22.5
18.59375 -14.877579 21.100061
18.59375 -14.283976 23.450123
18.59375 -14.76396 21.549877
18.59375 -14.170357 23.899939
20.78125 -14.877579 21.100061
20.78125 -14.283976 23.450123
20.78125 -14.76396 21.549877
20.78125 -14.170357 23.899939
19.6875 -13.336761 27.200123
18.59375 -13.690372 25.800182
18.59375 -13.096768 28.150244
18.59375 -13.576753 26.25
18.59375 -12.983149 28.600061
20.78125 -13.690372 25.800182
20.78125 -13.096768 28.150244
20.78125 -13.576753 26.25
20.78125 -12.983149 28.600061
24.0625 -14.751205 21.600367
22.96875 -14.991199 20.650244
22.96875 -14.397595 23.000305
25.15625 -14.991199 20.650244
24.970745 -14.416866 22.924013
23.580297 -13.614092 26.102179
22.96875 -13.803991 25.350367
24.0625 -14.523968 22.5
22.96875 -14.877579 21.100061
22.96875 -14.283976 23.450123
22.96875 -14.76396 21.549877
22.96875 -14.170357 23.899939
25.15625 -14.877579 21.100061
24.803957 -14.320572 23.305241
25.027731 -13.650954 21.212515
24.513657 -13.947757 23.562576
23.246727 -13.421505 26.864624
22.96875 -13.690372 25.800182
22.72765 -13.121815 28.051088
22.96875 -13.576753 26.25
22.560863 -13.025521 28.432312
23.93259 -13.817488 25.296938
23.061218 -13.314402 27.288643
23.765804 -13.721193 25.678162
22.894436 -13.218109 27.669865
19.6875 -12.376791 31.000612
19.427677 -11.216576 35.59388
19.6875 -12.149553 31.900244
18.59375 -12.503164 30.500305
18.59375 -11.909561 32.850368
18.59375 -12.389545 30.950123
18.59375 -11.795941 33.300182
20.78125 -12.503164 30.500305
20.65134 -11.923057 32.79694
20.78125 -12.389545 30.950123
20.484554 -11.826763 33.178162
19.094109 -11.023989 36.356323
18.59375 -11.202338 35.650246
18.408245 -10.628005 37.924011
19.613186 -11.323678 35.169865
18.741816 -10.820593 37.161564
21.837559 -12.607922 30.085579
21.503988 -12.415334 30.848026
21.856279 -12.618729 30.042793
21.689495 -12.522436 30.424013
20.818125 -12.01935 32.415714
22.023066 -12.715023 29.661564
19.76125 -11.409163 34.831432
22.000841 -9.3994989 23.174725
18.59375 -14.650341 21.999695
18.59375 -14.056736 24.349754
21.549686 -8.0812817 22.112148
21.03561 -8.3780832 24.46221
22.966074 -10.420914 21.887239
22.451998 -10.717716 24.237301
22.19496 -8.9716864 21.662333
21.680882 -9.2684898 24.012392
20.972691 -9.993103 27.874847
18.59375 -13.463132 26.699816
18.59375 -12.869528 29.049877
20.521536 -8.6748848 26.812271
20.00746 -8.9716864 29.162333
21.937922 -11.014518 26.587362
21.423845 -11.311319 28.937424
21.166805 -9.5652914 26.362453
20.652731 -9.862093 28.712515
20.458614 -6.5010428 22.724909
20.778574 -6.6320529 21.887239
20.264498 -6.9288549 24.237301
20.00746 -5.1828251 21.662333
19.493382 -5.4796271 24.012392
21.423845 -7.522459 21.437424
20.909769 -7.8192601 23.787485
20.652731 -6.0732312 21.212515
20.138655 -6.3700328 23.562576
19.430462 -7.094646 27.42503
19.750422 -7.225657 26.587362
19.236345 -7.522459 28.937424
18.979305 -5.7764292 26.362453
18.465231 -6.0732312 28.712515
20.395695 -8.1160622 26.137547
19.881618 -8.4128637 28.487608
19.624578 -6.6668348 25.912638
19.110502 -6.9636359 28.262699
23.291386 -11.18031 22.275091
23.611345 -11.311319 21.437424
23.097269 -11.608122 23.787485
22.840231 -9.862092 21.212515
22.326155 -10.158895 23.562576
24.256618 -12.201725 20.987608
23.742542 -12.498528 23.337669
23.485504 -10.752498 20.762699
22.971426 -11.049301 23.112761
22.263235 -11.773914 26.975214
22.583195 -11.904923 26.137547
22.069118 -12.201725 28.487608
21.812078 -10.455697 25.912638
21.298002 -10.752499 28.262699
23.228466 -12.795329 25.687729
22.71439 -13.092131 28.03779
22.457352 -11.346103 25.462822
21.749159 -8.2818537 21.825275
22.069118 -8.4128637 20.987608
21.555042 -8.7096663 23.337669
21.298004 -6.963635 20.762699
20.783926 -7.260438 23.112761
22.71439 -9.3032694 20.53779
22.200314 -9.600071 22.887852
20.721006 -8.8754578 26.525398
21.040966 -9.0064678 25.687729
20.52689 -9.3032694 28.03779
20.269852 -7.55724 25.462822
19.944538 -10.586706 32.57497
18.59375 -12.275925 31.399939
18.59375 -11.682321 33.75
19.493383 -9.2684889 31.512394
18.979307 -9.5652905 33.862453
20.909769 -11.608122 31.287485
20.317768 -11.730469 33.559387
20.138655 -10.158895 31.062576
19.624578 -10.455697 33.412636
18.760536 -10.831401 37.118774
18.59375 -11.088717 36.10006
18.241459 -10.531712 38.305237
18.465231 -9.862092 36.212517
17.951157 -10.158895 38.562576
19.4464 -11.227385 35.551086
18.575029 -10.724298 37.542793
19.110502 -10.752499 35.762699
18.408245 -10.628005 37.924011
18.402309 -7.688251 32.125153
18.722269 -7.8192601 31.287485
18.208195 -8.1160622 33.637547
17.951155 -6.3700328 31.062576
17.437078 -6.6668348 33.412636
19.367542 -8.7096663 30.837669
18.853466 -9.0064678 33.187729
18.596426 -7.260438 30.612761
18.082352 -7.55724 32.962822
17.374159 -8.2818537 36.825275
17.694118 -8.4128637 35.987606
17.180042 -8.7096663 38.337669
16.923002 -6.9636359 35.762699
16.408926 -7.260438 38.112759
18.33939 -9.3032694 35.537792
17.825314 -9.600071 37.887852
21.170418 -12.222747 31.610474
21.522709 -12.426142 30.805237
20.65134 -11.923057 32.79694
20.783926 -11.049301 30.612761
20.269852 -11.346103 32.962822
21.856279 -12.618729 30.042793
19.427679 -11.216576 35.593876
19.77997 -11.419971 34.788639
19.692856 -9.4690609 31.225521
20.012814 -9.600071 30.387852
18.664703 -10.062665 35.925644
25.990177 -15.005437 20.59388
26.175686 -15.112539 20.169865
25.304316 -14.609454 22.161564
24.247438 -13.999266 24.577286
25.656609 -14.81285 21.356323
26.0089 -15.016245 20.551088
25.137529 -14.51316 22.542793
25.673004 -14.54136 20.762699
24.970745 -14.416866 22.924013
26.342468 -15.208832 19.788643
23.91387 -13.80668 25.339729
24.266161 -14.010075 24.534491
24.099375 -13.913781 24.915714
26.65732 -15.390612 19.068983
26.32375 -15.198025 19.83143
22.171129 -12.800508 29.323135
24.58193 -12.961122 21.37546
24.90189 -13.092131 20.53779
24.387814 -13.388933 22.887852
23.55378 -13.554725 26.075581
23.039703 -10.062665 20.925642
21.837559 -12.607921 30.085581
19.6875 -3.1573839 0
18.59375 -4.1046 0
18.59375 -4.1046 0
18.59375 -2.2101691 0
18.59375 -2.2101691 0
20.78125 -4.1046 0
23.480148 -2.546391 4.537179
20.78125 -2.2101691 0
22.709036 -1.097162 4.3122711
22.000841 -1.821776 8.1747246
21.549686 -0.50355798 7.1121478
21.03561 -0.80036002 9.4622097
22.966072 -2.8431931 6.887239
22.451996 -3.1399939 9.2373009
22.19496 -1.3939641 6.6623321
21.680883 -1.690765 9.012393
21.486765 1.670283 3.024786
18.59375 -0.31573799 0
21.292648 1.2424721 4.537179
18.59375 1.578692 0
20.521536 2.6917 4.3122711
20.78125 -0.31573799 0
21.937922 0.35206601 4.0873628
21.680882 2.0980949 1.512393
21.166805 1.801293 3.8624539
20.458614 1.0766799 7.7249079
20.778574 0.94567001 6.8872399
20.264498 0.64886802 9.2373009
20.00746 2.3948979 6.6623321
19.493383 2.0980959 9.012393
21.423845 0.055264 6.4374242
20.909769 -0.241538 8.7874851
20.652731 1.504491 6.2125149
20.138655 1.207689 8.5625763
24.319538 -3.0089829 2.5749691
22.96875 -4.1046 0
24.125422 -3.436795 4.0873628
23.868383 -1.690765 1.512393
23.354307 -1.9875669 3.8624539
25.284769 -4.0303988 1.287485
24.770695 -4.3272009 3.6375461
24.513657 -2.581171 1.062577
23.99958 -2.8779731 3.4126379
23.291386 -3.602587 7.2750921
23.611345 -3.733597 6.4374242
23.097269 -4.0303988 8.7874851
22.840231 -2.284369 6.2125149
22.326157 -2.581171 8.5625763
24.256618 -4.6240029 5.987607
23.742542 -4.920805 8.3376684
23.485504 -3.1747749 5.7626991
22.971428 -3.471576 8.1127605
22.777309 -0.110528 2.1251531
23.097269 -0.241538 1.287485
22.583195 -0.53833902 3.6375461
22.326155 1.207689 1.0625761
21.812078 0.91088802 3.412637
23.742542 -1.131943 0.83766901
23.228466 -1.428745 3.1877301
22.971426 0.31728399 0.61276001
22.457352 0.020482 2.962821
21.749159 -0.70413101 6.8252749
22.069118 -0.835141 5.987607
21.555042 -1.131943 8.3376684
21.298002 0.61408597 5.7626991
20.783926 0.31728399 8.1127596
22.71439 -1.725547 5.5377908
22.200314 -2.0223491 7.8878522
20.972691 -2.41538 12.874847
21.292648 -2.5463901 12.037179
20.778574 -2.8431921 14.38724
20.521536 -1.097162 11.812271
20.00746 -1.3939641 14.162332
21.93792 -3.4367959 11.587362
21.423843 -3.733598 13.937424
21.166807 -1.9875669 11.362454
20.652731 -2.284369 13.712516
19.944538 -3.0089829 17.57497
20.264498 -3.139993 16.737301
19.750422 -3.436795 19.087362
19.493383 -1.690765 16.512394
18.979307 -1.9875669 18.862453
20.909769 -4.0303998 16.287485
20.395693 -4.3272018 18.637547
20.138657 -2.581171 16.062576
19.62458 -2.8779731 18.412638
19.430462 0.48307601 12.425031
19.750422 0.35206601 11.587362
19.236345 0.055264 13.937424
18.979307 1.801294 11.362454
18.465231 1.504492 13.712516
20.395695 -0.53833902 11.137547
19.881618 -0.835141 13.487607
19.624578 0.91088802 10.912638
19.110502 0.61408597 13.262699
18.402309 -0.110528 17.125153
18.722269 -0.241538 16.287485
18.208195 -0.53833902 18.637547
17.951157 1.20769 16.062576
17.43708 0.91088802 18.412638
19.367542 -1.131943 15.837668
18.853466 -1.428745 18.187729
18.596426 0.31728399 15.61276
18.082352 0.020482 17.962822
22.263235 -4.1961908 11.975214
22.583195 -4.3272009 11.137547
22.069118 -4.6240029 13.487607
21.81208 -2.8779731 10.912638
21.298004 -3.1747749 13.262699
23.228466 -5.217607 10.68773
22.71439 -5.5144081 13.037791
22.457352 -3.768378 10.462822
21.235083 -4.789794 16.675337
21.555042 -4.920805 15.837668
21.040966 -5.217607 18.187729
20.783928 -3.471576 15.612761
20.269852 -3.768378 17.962822
22.200314 -5.8112102 15.387852
20.721006 -1.297735 11.525398
21.040966 -1.428745 10.68773
20.52689 -1.725547 13.037791
20.269852 0.020482 10.462821
19.692856 -1.8913389 16.225521
20.012814 -2.0223491 15.387852
19.944538 4.5687389 2.5749691
18.59375 3.4731231 0
19.750422 4.1409268 4.0873628
19.493383 5.8869572 1.512393
18.979307 5.5901561 3.8624539
20.909769 3.547323 1.287484
20.395693 3.2505209 3.6375461
20.138655 4.996551 1.0625761
19.624578 4.699749 3.412637
18.916386 3.9751351 7.2750921
19.236345 3.844126 6.4374242
18.722269 3.5473239 8.7874851
18.465231 5.293354 6.2125149
17.951157 4.996552 8.5625763
19.881617 2.9537189 5.987607
19.36754 2.6569171 8.3376684
19.110502 4.4029469 5.7626991
18.596426 4.1061449 8.1127596
18.402309 7.467196 2.1251531
18.722269 7.336185 1.287485
18.208195 7.0393829 3.6375461
17.951157 8.7854128 1.062577
17.43708 8.4886112 3.4126379
19.36754 6.4457788 0.837668
18.853464 6.1489768 3.1877289
18.596426 7.8950071 0.61276001
18.082352 7.5982051 2.962821
17.374159 6.8735909 6.8252749
17.694118 6.7425809 5.987607
17.180042 6.4457798 8.3376684
16.923004 8.1918097 5.7626991
16.408928 7.8950081 8.1127605
18.33939 5.8521752 5.5377898
17.825314 5.5553732 7.8878522
21.235083 2.7879281 1.675337
21.55504 2.6569171 0.837668
21.040964 2.360116 3.1877289
20.783926 4.1061449 0.61276001
20.269852 3.8093441 2.962821
22.200314 1.766512 0.38785201
20.20693 2.194324 6.3754592
20.52689 2.063313 5.5377898
20.012814 1.766512 7.8878522
19.692856 5.6863842 1.22552
20.012814 5.5553732 0.38785201
18.664703 5.0927811 5.925642
17.888235 3.381532 11.975214
18.208195 3.2505219 11.137547
17.694118 2.9537201 13.487607
17.43708 4.6997499 10.912638
16.923004 4.4029479 13.262699
18.853464 2.360116 10.687729
18.33939 2.063313 13.03779
18.082352 3.8093441 10.462821
16.860083 2.7879281 16.675337
17.180042 2.656918 15.837668
16.665966 2.360116 18.187729
16.408928 4.1061459 15.612761
15.894853 3.8093441 17.962822
17.825314 1.766512 15.387852
16.346006 6.2799878 11.525398
16.665966 6.1489782 10.68773
16.15189 5.8521762 13.037791
15.894853 7.598206 10.462822
15.317855 5.6863842 16.225521
15.637815 5.5553741 15.387852
19.17878 1.600721 11.075582
18.150627 1.007117 15.775703
25.610083 -4.789794 1.675337
25.930042 -4.920805 0.83766901
25.415966 -5.217607 3.1877301
25.158928 -3.471576 0.61276001
24.644852 -3.768378 2.962821
26.575314 -5.8112102 0.38785201
24.58193 -5.3833981 6.3754592
24.90189 -5.5144081 5.5377908
24.387814 -5.8112102 7.8878522
24.067856 -1.8913389 1.22552
24.387814 -2.0223491 0.38785201
23.039703 -2.484942 5.925642
26.900627 -6.5706062 0.77570403
23.55378 -5.9770021 11.075582
22.525627 -6.5706062 15.775703
22.525627 1.007117 0.77570403
18.916386 -3.602587 22.275091
19.236345 -3.733597 21.437424
18.722269 -4.0303988 23.787485
18.465231 -2.284369 21.212515
17.951155 -2.581172 23.562576
19.881617 -4.6240029 20.987606
19.36754 -4.920805 23.337667
19.110504 -3.1747749 20.762699
18.596426 -3.4715769 23.112761
17.888235 -4.1961908 26.975214
18.208195 -4.3272009 26.137547
17.694118 -4.6240029 28.487608
17.437078 -2.877974 25.912638
16.923002 -3.1747761 28.262699
18.853464 -5.217607 25.687729
18.33939 -5.5144091 28.03779
18.082352 -3.768379 25.462822
17.374159 -0.70413101 21.825275
17.694118 -0.835141 20.987608
17.180042 -1.131943 23.337669
16.923004 0.61408699 20.762699
16.408926 0.31728399 23.112761
18.33939 -1.725547 20.53779
17.825314 -2.0223491 22.887852
16.346006 -1.297735 26.525398
16.665966 -1.428745 25.687729
16.15189 -1.725547 28.03779
15.894851 0.020482 25.462822
20.20693 -5.3833981 21.37546
20.52689 -5.5144081 20.53779
20.012814 -5.8112102 22.887852
19.17878 -5.9770021 26.075581
18.664703 -2.484942 20.925642
16.860083 -4.789794 31.675337
17.180042 -4.920805 30.837669
16.665966 -5.217607 33.187729
16.408926 -3.4715769 30.612761
15.894851 -3.768379 32.962822
17.825314 -5.8112111 30.387852
15.831931 -5.3833981 36.375458
16.15189 -5.5144081 35.537792
15.637815 -5.8112102 37.887852
15.317855 -1.8913389 31.225521
15.637815 -2.0223491 30.387852
14.289703 -2.484942 35.925644
18.150627 -6.5706062 30.775703
15.831931 2.194324 21.37546
16.15189 2.063314 20.53779
15.637815 1.766513 22.887852
14.80378 1.600721 26.075581
14.289703 5.0927811 20.925642
13.775627 1.007117 30.775703
2.1875 -9.7751389 41.300488
1.09375 -10.015131 40.350368
3.28125 -10.015131 40.350368
2.1875 -8.5879307 46.00061
6.5625 -9.7751389 41.300488
5.46875 -10.015131 40.350368
7.65625 -10.015131 40.350368
6.5625 -8.5879307 46.00061
2.1875 -7.400723 50.700733
6.5625 -7.400723 50.700733
2.1875 -9.5478983 42.200123
1.09375 -9.9015093 40.800182
1.09375 -9.3079062 43.150246
1.09375 -9.7878904 41.25
1.09375 -9.1942863 43.60006
3.28125 -9.9015093 40.800182
3.28125 -9.3079062 43.150246
3.28125 -9.7878904 41.25
3.28125 -9.1942863 43.60006
2.1875 -8.3606911 46.900246
1.09375 -8.7143021 45.500305
1.09375 -8.1206989 47.850368
1.09375 -8.6006832 45.950123
1.09375 -8.0070791 48.300182
3.28125 -8.7143021 45.500305
3.28125 -8.1206989 47.850368
3.28125 -8.6006832 45.950123
3.28125 -8.0070791 48.300182
2.1875 -9.3206606 43.099754
1.09375 -9.6742725 41.699818
1.09375 -9.0806665 44.049877
1.09375 -9.5606518 42.149632
1.09375 -8.9670486 44.499695
3.28125 -9.6742725 41.699818
3.28125 -9.0806665 44.049877
3.28125 -9.5606518 42.149632
3.28125 -8.9670486 44.499695
2.1875 -8.1334515 47.799877
1.09375 -8.4870634 46.399937
1.09375 -7.8934588 48.75
1.09375 -8.3734465 46.849754
1.09375 -7.7798409 49.199818
3.28125 -8.4870634 46.399937
3.28125 -7.8934588 48.75
3.28125 -8.3734465 46.849754
3.28125 -7.7798409 49.199818
6.5625 -9.5478983 42.200123
5.46875 -9.9015093 40.800182
5.46875 -9.3079062 43.150246
5.46875 -9.7878904 41.25
5.46875 -9.1942863 43.60006
7.65625 -9.9015093 40.800182
7.65625 -9.3079062 43.150246
7.65625 -9.7878904 41.25
7.65625 -9.1942863 43.60006
6.5625 -8.3606911 46.900246
5.46875 -8.7143021 45.500305
5.46875 -8.1206989 47.850368
5.46875 -8.6006832 45.950123
5.46875 -8.0070791 48.300182
7.65625 -8.7143021 45.500305
7.65625 -8.1206989 47.850368
7.65625 -8.6006832 45.950123
7.65625 -8.0070791 48.300182
6.5625 -9.3206606 43.099754
5.46875 -9.6742725 41.699818
5.46875 -9.0806665 44.049877
5.46875 -9.5606518 42.149632
5.46875 -8.9670486 44.499695
7.65625 -9.6742725 41.699818
7.65625 -9.0806665 44.049877
7.65625 -9.5606518 42.149632
7.65625 -8.9670486 44.499695
6.5625 -8.1334515 47.799877
5.46875 -8.4870634 46.399937
5.46875 -7.8934588 48.75
5.46875 -8.3734465 46.849754
5.46875 -7.7798409 49.199818
7.65625 -8.4870634 46.399937
7.65625 -7.8934588 48.75
7.65625 -8.3734465 46.849754
7.65625 -7.7798409 49.199818
2.1875 -7.1734829 51.600368
1.09375 -7.413476 50.650246
1.09375 -6.8198719 53.000305
3.28125 -7.413476 50.650246
3.28125 -6.8198719 53.000305
2.1875 -5.9862761 56.300488
1.09375 -6.2262678 55.350368
3.28125 -6.2262678 55.350368
2.1875 -6.9462438 52.5
1.09375 -7.2998562 51.10006
1.09375 -6.7062521 53.450123
1.09375 -7.1862369 51.549877
1.09375 -6.5926342 53.89994
3.28125 -7.2998562 51.10006
3.28125 -6.7062521 53.450123
3.28125 -7.1862369 51.549877
3.28125 -6.5926342 53.89994
2.1875 -5.759037 57.200123
1.09375 -6.112648 55.800182
1.09375 -5.5190449 58.150246
1.09375 -5.9990301 56.25
1.09375 -5.405427 58.60006
3.28125 -6.112648 55.800182
3.28125 -5.5190449 58.150246
3.28125 -5.9990301 56.25
3.28125 -5.405427 58.60006
6.5625 -7.1734829 51.600368
5.46875 -7.413476 50.650246
5.46875 -6.8198719 53.000305
7.65625 -7.413476 50.650246
7.65625 -6.8198719 53.000305
6.5625 -5.9862761 56.300488
5.46875 -6.2262678 55.350368
7.65625 -6.2262678 55.350368
6.5625 -6.9462438 52.5
5.46875 -7.2998562 51.10006
5.46875 -6.7062521 53.450123
5.46875 -7.1862369 51.549877
5.46875 -6.5926342 53.89994
7.65625 -7.2998562 51.10006
7.65625 -6.7062521 53.450123
7.65625 -7.1862369 51.549877
7.65625 -6.5926342 53.89994
6.5625 -5.759037 57.200123
5.46875 -6.112648 55.800182
5.46875 -5.5190449 58.150246
5.46875 -5.9990301 56.25
5.46875 -5.405427 58.60006
7.65625 -6.112648 55.800182
7.65625 -5.5190449 58.150246
7.65625 -5.9990301 56.25
7.65625 -5.405427 58.60006
10.9375 -9.7751389 41.300488
9.84375 -10.015131 40.350368
12.03125 -10.015131 40.350368
10.9375 -8.5879307 46.00061
15.3125 -9.7751389 41.300488
14.21875 -10.015131 40.350368
16.40625 -10.015131 40.350368
14.941487 -8.6264725 45.84803
10.9375 -7.400723 50.700733
10.9375 -9.5478983 42.200123
9.84375 -9.9015093 40.800182
9.84375 -9.3079062 43.150246
9.84375 -9.7878904 41.25
9.84375 -9.1942863 43.60006
12.03125 -9.9015093 40.800182
12.03125 -9.3079062 43.150246
12.03125 -9.7878904 41.25
12.03125 -9.1942863 43.60006
10.9375 -8.3606911 46.900246
9.84375 -8.7143021 45.500305
9.84375 -8.1206989 47.850368
9.84375 -8.6006832 45.950123
9.84375 -8.0070791 48.300182
12.03125 -8.7143021 45.500305
12.03125 -8.1206989 47.850368
12.03125 -8.6006832 45.950123
12.03125 -8.0070791 48.300182
10.9375 -9.3206606 43.099754
9.84375 -9.6742725 41.699818
9.84375 -9.0806665 44.049877
9.84375 -9.5606518 42.149632
9.84375 -8.9670486 44.499695
12.03125 -9.6742725 41.699818
12.03125 -9.0806665 44.049877
13.959034 -4.886024 41.812271
13.444958 -5.182826 44.162331
10.9375 -8.1334515 47.799877
9.84375 -8.4870634 46.399937
9.84375 -7.8934588 48.75
9.84375 -8.3734465 46.849754
9.84375 -7.7798409 49.199818
12.03125 -8.4870634 46.399937
12.03125 -7.8934588 48.75
12.930882 -5.4796271 46.512394
12.416806 -5.7764292 48.862453
15.3125 -9.5478983 42.200123
14.21875 -9.9015093 40.800182
14.21875 -9.3079062 43.150246
14.21875 -9.7878904 41.25
14.21875 -9.1942863 43.60006
16.40625 -9.9015093 40.800182
16.16515 -9.3329535 43.051086
16.40625 -9.7878904 41.25
15.998363 -9.23666 43.432312
14.607918 -8.4338856 46.610474
14.21875 -8.7143021 45.500305
14.08884 -8.1341953 47.79694
14.21875 -8.6006832 45.950123
13.922054 -8.0379019 48.178162
15.293779 -8.8298674 45.042793
15.126995 -8.7335749 45.424011
14.255625 -8.2304888 47.415714
15.055462 -7.094646 42.42503
15.375422 -7.225657 41.587364
14.861345 -7.522459 43.937424
14.604306 -5.7764292 41.362453
14.09023 -6.0732312 43.712517
16.020695 -8.1160622 41.137547
15.506618 -8.4128637 43.487606
15.249578 -6.6668348 40.912636
14.735502 -6.9636359 43.262699
14.02731 -7.688251 47.125153
14.34727 -7.8192601 46.287483
13.755268 -7.941607 48.559387
13.576155 -6.3700328 46.062576
13.062078 -6.6668348 48.412636
14.960209 -8.6372805 45.805237
14.08884 -8.1341953 47.79694
14.221427 -7.260438 45.612759
13.707351 -7.55724 47.962822
10.9375 -7.1734829 51.600368
9.84375 -7.413476 50.650246
9.84375 -6.8198719 53.000305
12.03125 -7.413476 50.650246
11.845744 -6.8391442 52.924011
10.455297 -6.0363688 56.10218
9.84375 -6.2262678 55.350368
10.9375 -6.9462438 52.5
9.84375 -7.2998562 51.10006
9.84375 -6.7062521 53.450123
9.84375 -7.1862369 51.549877
9.84375 -6.5926342 53.89994
12.03125 -7.2998562 51.10006
11.678959 -6.7428498 53.305237
11.90273 -6.0732312 51.212517
11.388655 -6.3700328 53.562576
10.121727 -5.8437819 56.864624
9.84375 -6.112648 55.800182
9.6026478 -5.5440922 58.05109
9.84375 -5.9990301 56.25
9.4358625 -5.4477992 58.432312
10.807589 -6.2397642 55.29694
9.9362183 -5.7366791 57.288643
10.640804 -6.1434708 55.678162
9.769434 -5.6403852 57.669868
12.865178 -7.4277139 50.59388
13.050685 -7.5348172 50.169865
12.179316 -7.0317321 52.161564
11.122439 -6.4215441 54.577282
12.531609 -7.235127 51.356323
12.883898 -7.4385219 50.55109
12.012529 -6.9354372 52.542793
12.548002 -6.9636359 50.762699
11.845745 -6.8391442 52.924011
13.21747 -7.6311102 49.788639
10.78887 -6.2289572 55.339729
11.141161 -6.4323521 54.534492
10.974374 -6.3360581 54.915718
2.1875 -4.799068 61.00061
2.1875 -3.611861 65.700737
2.1875 -4.5718288 61.900246
1.09375 -4.9254408 60.500305
1.09375 -4.3318372 62.850368
1.09375 -4.8118229 60.950123
1.09375 -4.2182188 63.300182
3.28125 -4.9254408 60.500305
3.28125 -4.3318372 62.850368
3.28125 -4.8118229 60.950123
3.28125 -4.2182188 63.300182
2.1875 -3.3846221 66.600365
1.09375 -3.624615 65.650246
1.09375 -3.0310121 68.000305
3.28125 -3.624615 65.650246
3.28125 -3.0310121 68.000305
6.5625 -4.799068 61.00061
6.3026781 -3.6388531 65.59388
6.5625 -4.5718288 61.900246
5.46875 -4.9254408 60.500305
5.46875 -4.3318372 62.850368
5.46875 -4.8118229 60.950123
5.46875 -4.2182188 63.300182
7.65625 -4.9254408 60.500305
7.5263391 -4.3453341 62.79694
7.65625 -4.8118229 60.950123
7.3595538 -4.2490411 63.178162
5.9691091 -3.4462659 66.356323
5.46875 -3.624615 65.650246
5.2832451 -3.050283 67.924011
6.488184 -3.745955 65.169861
5.616816 -3.2428701 67.161568
2.1875 -2.1974139 71.300491
1.09375 -2.437408 70.350365
3.28125 -2.437408 70.350365
1.816487 -1.048749 75.84803
4.2263699 -2.4400959 70.339729
2.483629 -1.433924 74.323135
8.7125587 -5.0301991 60.085579
8.3789873 -4.8376112 60.84803
8.7312794 -5.0410061 60.042793
8.5644941 -4.9447131 60.424015
7.6931238 -4.441628 62.415718
8.8980646 -5.1373 59.661568
6.63625 -3.83144 64.831429
9.0461302 -5.222785 59.323132
2.1875 -9.0934219 43.99939
2.1875 -7.9062142 48.699509
1.09375 -7.6662211 49.649632
3.28125 -7.6662211 49.649632
8.0993729 4.0446992 44.224297
7.0712209 3.4510939 48.924419
10.932146 -0.63456798 43.774479
10.612185 -0.50355899 44.612148
9.9039936 -1.2281719 48.474602
5.46875 -7.6662211 49.649632
10.355149 -2.5463901 49.537178
10.098109 -0.80036098 46.962208
9.584034 -1.097163 49.312271
9.3899174 2.2638869 43.324665
8.4246845 3.2853019 44.612148
10.355149 1.2424721 42.037178
9.8410721 0.945669 44.387241
9.5840349 2.6917 41.812271
9.0699577 2.394897 44.162331
8.3617659 1.670283 48.024784
8.1676474 1.242471 49.537178
7.9106088 2.9885011 46.962208
7.396534 2.691699 49.312271
9.3269958 0.64886701 46.737301
8.8129196 0.352065 49.08736
8.5558825 2.0980949 46.512394
8.0418062 1.801293 48.862453
2.1875 -6.719007 53.399632
1.09375 -7.072618 51.999695
1.09375 -6.4790149 54.349754
3.28125 -7.072618 51.999695
3.28125 -6.4790149 54.349754
2.1875 -5.5317988 58.099754
1.09375 -5.8854108 56.699818
1.09375 -5.2918072 59.049877
1.09375 -5.771791 57.149632
1.09375 -5.1781869 59.499695
3.28125 -5.8854108 56.699818
3.28125 -5.2918072 59.049877
3.28125 -5.771791 57.149632
3.28125 -5.1781869 59.499695
6.0430689 2.857491 53.624542
6.237185 3.2853019 52.112148
5.7231088 2.9885011 54.462208
5.0149169 2.2638869 58.324665
4.049685 3.2853019 59.612148
5.9801469 1.242471 57.037178
5.4660721 0.945669 59.387241
5.209034 2.691699 56.812271
4.6949582 2.394897 59.162331
8.8758411 -1.821776 53.174725
5.46875 -7.072618 51.999695
5.46875 -6.4790149 54.349754
8.4246845 -0.50355899 52.112148
7.9106088 -0.80036098 54.462208
9.841073 -2.8431921 51.887241
9.3269978 -3.139993 54.237301
9.0699577 -1.393965 51.662331
8.5558825 -1.690766 54.012394
7.8476901 -2.41538 57.874847
5.46875 -5.8854108 56.699818
5.46875 -5.2918072 59.049877
7.396534 -1.097163 56.812271
6.8824582 -1.393965 59.162331
8.8129215 -3.436795 56.587364
8.2988453 -3.733597 58.937424
8.0418062 -1.987568 56.362453
7.52773 -2.2843699 58.712517
7.3336139 1.0766799 52.724907
7.6535721 0.945669 51.887241
7.1394958 0.64886701 54.237301
6.8824582 2.394897 51.662331
6.368382 2.0980949 54.012394
8.2988443 0.055263001 51.437424
7.7847681 -0.241538 53.787483
7.52773 1.504491 51.212517
7.0136542 1.207689 53.562576
6.3054619 0.48307601 57.42503
6.6254201 0.352065 56.58736
6.1113439 0.055263001 58.937424
5.8543062 1.801293 56.362453
5.34023 1.504491 58.712517
7.2706919 -0.53833997 56.137547
6.7566171 -0.83514202 58.487606
6.499578 0.91088802 55.912636
5.9855032 0.61408597 58.262699
6.5571451 6.9431539 43.774479
6.237185 7.0741639 44.612148
5.5289931 6.3495498 48.474602
5.9801469 5.031332 49.537178
5.7231088 6.7773619 46.962208
5.209034 6.4805598 49.312271
5.0149169 9.84161 43.324665
4.049685 10.863026 44.612148
5.9801488 8.8201942 42.037178
5.4660721 8.5233917 44.387241
5.209034 10.269422 41.812271
4.6949582 9.97262 44.162331
3.9867649 9.2480068 48.024784
3.7926481 8.8201933 49.537178
3.535609 10.566223 46.962208
3.021534 10.269422 49.312271
4.9519958 8.2265902 46.737301
4.4379201 7.9297881 49.08736
4.180882 9.6758165 46.512394
3.666806 9.3790159 48.862453
7.8476901 5.162343 42.874847
8.1676493 5.031333 42.037178
7.6535721 4.73453 44.387241
7.396534 6.4805598 41.812271
6.8824582 6.1837578 44.162331
8.8129215 4.1409268 41.587364
8.2988443 3.844125 43.937424
8.0418062 5.5901551 41.362453
7.52773 5.2933531 43.712517
6.8195381 4.5687389 47.57497
7.1394958 4.4377279 46.737301
6.6254201 4.1409259 49.08736
6.368382 5.8869572 46.512394
5.8543062 5.5901551 48.862453
7.7847681 3.547323 46.287483
7.2706919 3.2505209 48.637547
7.0136542 4.996551 46.062576
6.499578 4.699749 48.412636
6.3054619 8.0607986 42.42503
