# .PCD v0.7 - Point Cloud Data file format
VERSION 0.7
FIELDS x y z
SIZE 4 4 4
TYPE F F F
COUNT 1 1 1
WIDTH 1548
HEIGHT 1
VIEWPOINT 0 0 0 1 0 0 0
POINTS 1548
DATA ascii
-2.3436661 -11.815209 37.601196
-3.2890949 -11.47875 37.04211
-3.3491759 -11.82119 38.601669
-3.7431071 -11.291435 36.841545
-3.8145051 -11.616718 38.342232
-1.133095 -11.868029 36.957085
-1.16304 -12.20908 38.489994
-1.224447 -11.815196 36.741417
-10.660691 -12.56871 46.688133
-10.689561 -10.671995 42.859795
-11.453432 -11.571331 46.183815
-11.3106 -11.900925 46.522839
-7.7853532 -12.876866 42.677971
-8.4167919 -13.818658 45.917217
-7.7521229 -13.730989 44.809124
-8.1281319 -14.166811 46.302898
-8.5782423 -12.177145 42.170208
-9.5513449 -11.767798 43.049763
-7.5963821 -12.513378 41.313595
-7.8336172 -12.920252 42.884941
-8.0555 -12.142102 41.076126
-8.2912636 -12.532857 42.633556
-9.1504517 -13.020933 45.249336
-9.4500084 -12.618538 44.849846
-9.8156614 -13.082965 46.390263
-9.9108753 -12.150047 44.568233
-10.208256 -12.626953 46.060131
-8.1749239 -13.342106 44.501972
-8.4455338 -13.827429 45.974323
-8.5719604 -12.964507 44.172649
-8.8693886 -13.413424 45.657005
-11.270626 -13.333347 48.973396
-11.270626 -13.333347 48.973396
-12.291199 -12.4095 48.973396
-11.407095 -12.845398 48.344681
-11.534648 -13.094348 48.973396
-11.716349 -12.337112 47.972015
-12.077533 -12.602916 48.973396
-12.192139 -12.234937 49.261696
-11.427771 -13.033632 49.157837
-11.930549 -12.479737 49.261696
-9.0606403 -14.831998 48.813171
-9.5761042 -14.593697 48.973396
-9.7227573 -14.05444 48.131092
-9.9217606 -14.371297 48.973396
-8.0756655 -15.040815 48.092335
-8.2458067 -15.385712 48.973396
-8.3788137 -14.707829 47.747578
-8.617836 -15.187545 48.973396
-8.976861 -14.752884 49.261696
-9.9538784 -14.174932 49.201153
-8.1361141 -15.228815 49.261696
-8.5824575 -14.996976 49.261696
-9.8515759 -13.968109 48.148411
-10.153799 -13.569135 47.811031
-10.446016 -13.976754 48.973396
-10.57454 -13.087599 47.507629
-10.953061 -13.559343 48.907314
-8.7612343 -14.316035 47.414383
-9.0705242 -14.826873 48.815144
-9.1744528 -13.886354 47.086746
-8.94384 -13.542196 49.06284
-9.9684935 -14.117013 49.261696
-10.322616 -13.842884 49.261696
-10.85146 -13.431394 49.261696
-9.010869 -14.73061 49.261696
-9.1183624 -13.806721 49.261696
-11.408316 -9.6872816 42.431065
-10.966439 -9.7006207 41.332787
-11.339412 -9.9692116 42.894379
-12.240842 -10.426186 45.670673
-13.066075 -9.9520063 46.539543
-11.285606 -10.988886 44.759247
-11.751117 -11.302612 46.239441
-11.750385 -10.333899 44.52523
-12.169588 -10.706038 46.00264
-12.199471 -8.4931421 42.084026
-12.906578 -7.971622 43.08646
-11.409281 -9.1052713 41.150337
-11.76775 -9.4046507 42.720848
-11.842313 -8.4486752 40.995182
-12.219781 -8.6935301 42.533447
-13.0019 -9.1445312 45.16655
-12.946741 -8.9867859 44.80003
-13.443318 -9.2736588 46.303825
-13.355877 -8.2453318 44.606606
-13.823326 -8.53757 46.092781
-12.162743 -9.7200546 44.253025
-12.600114 -10.045476 45.761574
-12.628536 -8.9920149 44.060284
-13.057057 -9.3022766 45.53307
-9.4500933 -11.308272 41.689671
-9.6678038 -10.943749 41.178047
-10.008957 -11.26854 42.735893
-10.059542 -10.501329 40.957638
-10.395632 -10.804982 42.507404
-8.4594498 -11.789465 40.845913
-8.7282372 -12.15252 42.388111
-8.9279919 -11.354735 40.617661
-9.2012606 -11.692396 42.143566
-10.073692 -12.076204 44.687992
-10.245459 -11.723497 44.271809
-10.637366 -12.115171 45.776749
-10.734838 -11.15799 44.031464
-11.100317 -11.545807 45.506573
-9.0046482 -12.539894 43.898037
-9.3117886 -12.954831 45.367241
-8.6299953 -10.994277 44.125004
-8.994628 -11.437771 45.561749
-10.434983 -10.237 41.247749
-10.550927 -9.9286356 40.758423
-10.867608 -10.23663 42.295319
-11.035007 -9.2937231 40.573696
-11.367062 -9.5779934 42.095646
-9.4240208 -10.858664 40.398827
-8.7557545 -10.083281 42.357975
-8.9355202 -9.1999865 40.61359
-9.2496681 -9.5394545 42.126244
-10.12604 -9.9377565 44.66
-11.222502 -10.551621 43.80114
-10.654027 -10.028094 45.756325
-10.678789 -8.9823704 44.068882
-11.097866 -9.3460274 45.506477
-9.1006546 -10.4751 43.846268
-9.4506845 -10.89056 45.26231
-9.607933 -9.8898125 43.596283
-9.9787397 -10.27198 45.016933
-13.116031 -11.257035 48.574795
-13.163574 -11.013351 48.317204
-13.361 -11.249199 48.973396
-13.507199 -10.373669 47.994862
-13.874585 -10.579729 48.973396
-12.176386 -11.721482 47.706436
-12.554987 -12.123397 48.973396
-12.604493 -11.098379 47.440865
-13.05669 -11.494813 48.840038
-13.130798 -11.213688 49.261696
-13.379892 -11.124331 49.075005
-13.712185 -10.492133 49.261696
-12.417142 -12.015296 49.261696
-12.959056 -11.406595 49.261696
-13.96561 -9.7835073 48.062508
-13.945378 -9.5966597 47.766575
-14.354007 -9.9458246 48.973396
-14.323185 -8.8459625 47.553368
-14.840174 -9.1621599 48.954811
-13.050869 -10.393979 47.189205
-12.864998 -10.243028 49.192215
-13.502491 -9.6237659 46.953915
-13.045909 -9.2958078 48.846718
-14.017073 -9.8204079 49.261696
-14.23369 -9.7862816 49.261696
-14.686722 -9.0736513 49.261696
-13.015832 -10.365986 49.261696
-13.470638 -9.6045237 49.261696
-10.015348 -12.00673 48.033211
-11.010632 -12.54522 47.209251
-11.01335 -12.548298 49.261696
-10.649005 -11.067889 47.443237
-11.092354 -11.541562 48.80825
-8.9189978 -12.415887 47.278736
-9.2890139 -12.941582 48.629856
-9.3519716 -11.903783 46.967327
-9.7479038 -12.386827 48.303318
-10.580258 -12.728353 49.261696
-11.01335 -12.548298 49.261696
-11.461671 -11.931338 49.261696
-9.4893475 -13.242555 49.10014
-9.9840574 -12.617597 48.978397
-11.006592 -10.722153 47.4506
-11.093211 -10.438399 47.160503
-11.555644 -10.866752 48.50861
-11.553782 -9.7217903 46.880054
-11.998273 -10.167907 48.212429
-9.8322401 -11.327849 46.634949
-10.188036 -11.823391 47.962315
-10.387004 -10.66696 46.409058
-10.733749 -11.115488 47.652798
-11.477918 -11.266184 48.978397
-11.698887 -11.042153 48.978397
-12.320327 -10.340259 48.978397
-10.521295 -12.167055 48.978397
-5.1305618 -13.977512 42.163979
-5.8318338 -13.419359 41.299488
-6.0809779 -13.842161 42.929287
-4.3577752 -14.525248 43.066246
-4.443234 -13.88177 41.104301
-4.5796952 -14.352262 42.732334
-5.5272298 -14.945808 45.260761
-6.0304871 -14.566465 44.805805
-6.236187 -15.10432 46.339283
-6.3585911 -14.304108 44.496445
-6.5851769 -14.806279 45.983738
-4.5014501 -15.036984 44.601383
-4.6615052 -15.571377 46.095757
-4.683764 -14.840281 44.237053
-4.8495069 -15.358506 45.738693
-5.7055449 -13.569191 41.594036
-6.249598 -13.146792 41.070065
-6.4620848 -13.564498 42.645329
-6.6442728 -12.879439 40.816143
-6.8431931 -13.286837 42.361366
-4.6897268 -13.737309 40.871819
-4.802711 -14.17637 42.413166
-4.9748249 -13.561097 40.605743
-5.1269441 -13.96944 42.134182
-6.1219149 -14.453084 44.6166
-6.707098 -14.026921 44.173702
-6.9078689 -14.516018 45.644329
-7.056797 -13.730231 43.860584
-7.2989912 -14.184278 45.33313
-4.9750738 -14.636672 43.927452
-5.1404619 -15.129172 45.40028
-4.813622 -13.126097 44.105522
-5.0105362 -13.652817 45.545288
-1.834278 -14.702676 41.922497
-2.5497389 -14.39884 41.275795
-2.6344421 -14.867495 42.874744
-2.727334 -14.291817 41.004162
-2.808733 -14.742508 42.574108
-0.86791801 -14.595204 41.235477
-0.91058099 -15.063346 42.805637
-0.92575502 -14.511749 40.951305
-0.95919901 -14.967333 42.500378
-1.8957551 -15.713035 44.963951
-2.7551379 -15.386496 44.457066
-2.815989 -15.92706 45.916321
-2.907897 -15.23448 44.089691
-2.9927869 -15.765817 45.571815
-0.89011902 -15.586266 44.378975
-0.94871002 -16.122042 45.874744
-0.97047597 -15.457052 44.015339
-1.01083 -15.971463 45.498703
-2.059113 -14.500423 41.323036
-2.904928 -14.184794 40.732529
-2.9830239 -14.61752 42.273472
-3.106642 -14.062797 40.458534
-2.9136159 -13.052006 42.408638
-0.98359197 -14.428294 40.667133
-1.014944 -14.869387 42.195564
-1.041429 -14.344837 40.382961
-0.97267199 -13.317219 42.342785
-1.99088 -14.078661 44.762756
-3.069149 -15.094949 43.768215
-2.916492 -14.333214 45.714729
-2.9891019 -13.576591 43.917126
-3.124342 -14.128547 45.347137
-1.052122 -15.343264 43.692001
-0.99136198 -14.543386 45.629082
-1.021328 -13.831273 43.824448
-1.0251811 -14.376163 45.235706
-5.889338 -16.05459 48.175255
-6.473588 -15.660346 47.789761
-6.6962118 -16.117348 48.973396
-6.7846508 -15.354649 47.418636
-7.0481529 -15.904789 48.820637
-4.7759032 -16.14505 47.540676
-4.9503708 -16.722359 48.949928
-5.033402 -15.90093 47.171013
-4.9501281 -15.636184 49.168907
-5.947207 -16.220741 49.261696
-6.6139312 -15.948146 49.261696
-6.9961629 -15.791866 49.261696
-4.8969779 -16.556931 49.261696
-5.0059061 -15.821766 49.261696
-6.0863771 -14.36034 47.941387
-7.154408 -15.016187 47.069141
-6.9648309 -14.631604 49.045769
-6.9797049 -13.584234 47.235264
-7.2821741 -14.141212 48.587593
-4.9241929 -14.494754 47.320923
-5.1268449 -15.101512 48.679455
-5.2148509 -14.209056 46.93927
-5.4267988 -14.786843 48.264801
-6.436223 -15.243827 49.261696
-7.1195221 -14.945072 49.261696
-7.431253 -14.455481 49.076309
-5.2623892 -15.504779 49.150204
-5.497365 -15.122875 48.978397
-2.0622699 -16.839689 47.833931
-2.919889 -16.506071 47.370949
-3.0404971 -17.102432 48.781509
-3.1060331 -16.32151 47.006706
-2.995095 -15.773088 48.892475
-0.98519301 -16.702204 47.295292
-1.0009429 -16.912922 49.261696
-0.95706898 -15.322077 47.426094
-1.015721 -15.974127 48.788582
-2.0083411 -16.425358 49.261696
-3.0034249 -16.912922 49.261696
-3.090785 -16.255264 49.261696
-1.0009429 -16.912922 49.261696
-1.075513 -16.524363 49.261696
-2.1661611 -15.260157 47.5481
-3.0427699 -14.910748 47.127136
-3.1769969 -15.525298 48.461685
-3.2339389 -14.694843 46.736721
-3.359782 -15.271008 48.038136
-1.036968 -15.140901 47.027996
-1.100134 -15.753307 48.358395
-1.1168669 -14.959725 46.629894
-1.1681269 -15.543521 47.944344
-2.231936 -15.929631 48.978397
-3.239362 -15.759252 48.978397
-3.477129 -15.704716 48.978397
-1.049292 -16.057117 48.978397
-5.8581662 -11.709459 41.517582
-7.038383 -12.601184 40.564957
-7.224082 -13.00634 42.083389
-6.7311049 -10.967768 40.746868
-6.9579868 -11.375292 42.2687
-4.7727489 -11.946827 40.776535
-4.94344 -12.391376 42.294029
-5.1143479 -11.722368 40.50024
-5.2854571 -12.140865 41.98925
-6.3083782 -12.609279 44.456287
-6.8243728 -12.177767 44.057541
-7.080236 -12.675079 45.491322
-7.223701 -11.806768 43.749542
-7.495913 -12.282255 45.188061
-5.1529059 -12.867629 43.759521
-5.3350582 -13.375131 45.208927
-5.537569 -12.578207 43.456112
-5.7777119 -13.047409 44.871929
-6.7105761 -11.061886 40.991528
-7.1597152 -10.579891 40.505123
-7.432178 -10.942469 41.989864
-7.6335149 -10.158463 40.264797
-7.8891082 -10.519775 41.745895
-5.5300202 -11.445897 40.225502
-5.7503958 -11.831473 41.701077
-6.0422349 -11.103842 39.986168
-6.1545959 -11.535963 41.455097
-7.2532849 -11.843897 43.882866
-7.7200899 -11.372047 43.459
-8.0251541 -11.803286 44.874073
-8.1985636 -10.893827 43.16251
-8.4930964 -11.333762 44.589359
-5.9131088 -12.278917 43.146324
-6.168746 -12.707481 44.521942
-2.126292 -12.814525 41.17466
-2.9842789 -12.467747 40.60701
-3.0915599 -12.925191 42.11311
-3.2090521 -12.322283 40.311981
-3.3723691 -12.746267 41.804897
-1.017648 -12.760797 40.520733
-1.058695 -13.206547 42.024803
-1.139623 -12.659483 40.218483
-1.130402 -13.103999 41.718925
-2.2866161 -13.765464 44.036251
-3.1999011 -13.410658 43.586838
-3.3649321 -13.908244 44.968571
-3.5051291 -13.210144 43.240154
-3.5239401 -13.741749 44.650314
-1.122568 -13.692782 43.475613
-1.2096 -14.221911 44.884266
-1.1867059 -13.574458 43.167374
-2.4762521 -12.591922 40.656536
-3.4380081 -12.195068 40.06757
-3.6512811 -12.554006 41.484856
-1.257336 -12.588878 40.005066
-1.20915 -13.014607 41.455097
-2.689584 -13.438284 43.361748
-6.7931042 -13.660603 47.201744
-7.3694592 -13.185432 46.874596
-7.635901 -13.756391 48.23259
-7.75736 -12.778751 46.516972
-8.0812721 -13.272506 47.830261
-5.5566931 -13.895906 46.551598
-5.7112432 -14.471105 47.859928
-6.0027599 -13.559889 46.239624
-7.3106732 -14.339141 48.978397
-7.8421078 -14.042645 48.978397
-7.693512 -12.796108 46.480934
-8.2955799 -12.295291 46.256527
-8.2391977 -13.821102 48.978397
-2.35695 -14.85099 46.713406
-3.481041 -14.48019 46.401909
-1.279766 -14.786846 46.2696
-2.514432 -15.892428 48.978397
-2.8635349 -14.482601 46.072914
-10.777319 -5.9916158 29.190571
-10.908528 -5.989367 29.606167
-11.259315 -6.1639938 31.823858
-10.765637 -6.7935748 30.994816
-10.978779 -6.8018298 32.59837
-11.170671 -6.0831351 30.922628
-11.326768 -6.2028942 32.514828
-11.413532 -4.4598312 28.950155
-15.015641 -2.369734 27.330669
-15.662782 -2.3225169 28.301096
-10.898598 -5.061409 28.133129
-11.310658 -5.1428561 29.513083
-11.185396 -4.2099948 27.934977
-11.589972 -4.3646488 29.411175
-11.942986 -4.615108 31.526491
-11.555839 -5.2999711 30.861097
-11.742078 -5.3602829 32.4631
-11.887211 -4.5082908 30.861097
-12.081047 -4.5182061 32.420483
-9.6093311 -7.3126612 28.32827
-9.6320992 -7.0675941 27.911579
-9.9767666 -7.3340502 29.35409
-9.9761028 -6.4682178 27.727077
-10.36727 -6.6975241 29.202299
-8.7320089 -7.9331679 27.477051
-9.0803366 -8.2484941 28.961445
-9.1971102 -7.2430038 27.246119
-9.5859356 -7.5571551 28.776979
-10.174078 -7.7503591 31.449856
-10.216076 -7.5662651 30.850821
-10.343378 -7.7039251 32.395859
-10.656956 -6.8824701 30.720636
-10.827405 -6.9663801 32.327106
-9.3572245 -8.5157986 30.545324
-9.5127802 -8.671113 32.212624
-8.6273928 -6.800981 30.756598
-8.7916269 -6.9282522 32.331005
-10.483019 -5.7436819 27.957367
-10.396935 -5.6463132 27.595001
-10.788451 -5.887064 29.058674
-10.748725 -4.7927241 27.438253
-11.196286 -5.0031729 28.928795
-9.674531 -6.4565382 27.031284
-8.7036152 -5.7988439 29.134192
-8.5649633 -4.6767039 27.589733
-9.1203766 -4.9622712 28.938639
-9.735383 -5.3126969 31.500536
-11.117665 -6.0584249 30.618822
-11.319338 -6.1539049 32.261398
-11.566184 -5.1268549 30.532482
-11.772956 -5.2141819 32.210979
-9.1156244 -6.0734348 30.615305
-9.3089266 -6.193491 32.263531
-9.5798521 -5.204031 30.435226
-9.8000431 -5.3590789 32.187916
-11.635668 -6.4092999 35.260361
-11.150955 -6.9418912 34.27681
-11.351487 -7.1165662 35.962181
-11.501356 -6.3138332 34.190197
-11.75172 -6.4005041 35.850815
-12.214867 -6.6914701 38.567158
-12.840071 -5.9961882 39.567047
-11.624471 -7.2915449 37.638096
-11.92782 -7.4992609 39.259708
-12.005968 -6.562077 37.479366
-12.331895 -6.7482848 39.126915
-12.35442 -4.8090429 35.087078
-12.442916 -5.0486851 36.07832
-12.510139 -4.0327249 34.33672
-12.753194 -4.1396532 36.007946
-11.910501 -5.491066 34.130531
-12.150533 -5.5797648 35.800251
-12.255937 -4.6444459 34.07148
-12.497678 -4.72893 35.70575
-12.941783 -5.026597 38.348701
-12.722582 -5.2361112 37.743626
-13.1295 -5.2474689 39.444725
-13.077688 -4.231524 37.746914
-13.421276 -4.3824 39.352333
-12.430115 -5.7159839 37.396042
-12.741715 -5.8633962 39.006207
-12.776746 -4.826591 37.317287
-13.104196 -4.9454741 38.904808
-10.496686 -7.9983578 34.69891
-10.517389 -7.8149462 34.043823
-10.725742 -7.9579449 35.671478
-11.001271 -7.0844741 33.958336
-11.214155 -7.2116709 35.578178
-8.4558353 -7.6616712 34.077614
-8.6271544 -7.8604078 35.697739
-8.9545364 -7.0484629 33.967033
-9.1483564 -7.2062311 35.580833
-9.6858759 -7.3830009 38.190685
-10.951296 -8.1349821 37.283833
-11.224427 -8.3463697 38.866009
-11.458089 -7.3776789 37.165394
-10.436308 -6.7204561 39.106892
-8.8715496 -8.0663013 37.308346
-9.1422997 -8.3095646 38.87928
-9.3854952 -7.3966742 37.173775
-9.6678543 -7.6062379 38.737339
-10.109831 -5.5102949 34.768082
-11.488837 -6.2458372 33.882812
-11.696413 -6.3752899 35.483978
-10.40655 -4.6473079 34.04998
-10.65629 -4.7593999 35.686459
-9.4661436 -6.3128152 33.877209
-9.6777716 -6.4487119 35.464504
-9.9677448 -5.4669518 33.784668
-10.192583 -5.5694041 35.365032
-10.657865 -5.793375 37.923492
-10.540314 -5.7540641 37.377876
-10.866026 -5.9191508 38.970036
-10.937499 -4.878984 37.284771
-11.278198 -5.0365672 38.85733
-9.9356871 -6.6095848 37.040234
-10.236375 -6.791532 38.582447
-10.47788 -5.6771369 36.931618
-10.747735 -5.879405 38.45771
-14.523443 -2.2190011 27.521349
-15.016789 -2.3697319 27.33066
-15.639544 -2.2898059 28.359438
-15.017937 -2.3697309 27.330652
-15.497034 -2.1677279 28.45018
-11.467169 -3.3178151 27.894444
-11.872784 -3.4816251 29.325897
-13.450703 -2.16485 26.758837
-12.076521 -2.529268 29.241352
-12.467215 -2.9613531 31.652622
-16.393661 -2.192008 29.279062
-12.538253 -3.1167581 32.593224
-16.309946 -2.050921 29.362869
-12.721087 -2.2257371 32.607178
-12.187343 -3.5724239 30.804966
-12.366288 -3.6441309 32.371883
-12.422899 -2.6119821 30.762054
-12.605583 -2.648675 32.346203
-14.392043 -1.08868 27.693819
-14.571683 -1.6396379 27.844402
-15.398496 -1.634312 28.581272
-14.566418 -0.54731399 27.844393
-15.397845 -0.54420799 28.58699
-13.355076 -1.634437 26.876245
-12.230839 -1.555037 29.196251
-13.352428 -0.54329801 26.879791
-12.325704 -0.51008397 29.196733
-12.768151 -0.993285 31.607393
-16.255934 -1.628935 29.41713
-12.833077 -1.456032 32.538437
-16.252464 -0.53780001 29.420568
-12.8962 -0.41912201 32.518341
-12.584735 -1.579982 30.7353
-12.785616 -1.600805 32.326923
-12.671706 -0.53348798 30.711193
-12.868259 -0.53678602 32.315052
-9.6142302 -3.1603229 28.34729
-11.081069 -3.840966 27.305527
-11.543338 -4.0218301 28.825912
-11.343658 -2.8160219 27.197153
-10.222451 -2.503041 29.315351
-8.8910255 -3.762094 27.398886
-9.4853497 -4.0446548 28.777294
-9.1517229 -2.767931 27.246321
-9.7995224 -2.9521661 28.613539
-10.538011 -3.4419711 31.409973
-10.384612 -3.6175981 30.789913
-10.572851 -3.677911 32.351524
-10.656613 -2.634496 30.727995
-10.853734 -2.6941559 32.317307
-9.9811354 -4.267776 30.287645
-10.28101 -4.3499289 32.133957
-10.36052 -3.0995979 30.17972
-10.70576 -3.1673651 32.113678
-9.9743223 -1.0869761 28.17617
-11.528788 -1.717836 27.136843
-10.378043 -1.56644 29.242228
-11.640942 -0.544954 27.097374
-10.473098 -0.53111702 29.203091
-9.3483648 -1.6932499 27.125614
-10.03261 -1.836956 28.512127
-9.4547682 -0.58208001 27.073738
-10.15216 -0.671875 28.463957
-11.014925 -1.223796 31.363766
-10.846508 -1.612928 30.682207
-11.057156 -1.641495 32.296104
-10.948952 -0.54381502 30.658333
-11.170034 -0.55258101 32.284084
-10.615898 -1.9511451 30.103512
-10.964689 -2.0496869 32.086269
-10.758677 -0.69391 30.065651
-11.135855 -0.776416 32.117817
-12.898855 -2.9777081 34.980576
-12.735917 -3.194186 34.281387
-12.991333 -3.282923 35.968159
-12.920758 -2.3497939 34.262352
-13.188795 -2.3608401 35.929104
-12.56138 -3.6903591 34.023869
-12.806437 -3.7617209 35.650734
-12.813341 -2.68363 33.986526
-13.057499 -2.7362511 35.605457
-13.482052 -3.14675 38.209866
-13.316678 -3.3530271 37.66309
-13.64992 -3.4949429 39.299809
-13.493513 -2.449276 37.573437
-13.862358 -2.5063169 39.220589
-13.097772 -3.8414891 37.252388
-13.431674 -3.917541 38.837952
-13.344527 -2.7997341 37.201046
-13.666537 -2.8820131 38.788521
-13.18834 -1.020081 34.925617
-13.04931 -1.452751 34.245171
-13.320885 -1.402142 35.903336
-13.11117 -0.48156199 34.229233
-13.38341 -0.49070001 35.899658
-12.984612 -1.632421 33.960636
-13.228394 -1.666113 35.576263
-13.062222 -0.54834402 33.948822
-13.321427 -0.55583799 35.559017
-13.791806 -1.075778 38.147671
-13.630878 -1.4448791 37.543896
-13.99762 -1.4956011 39.183697
-13.697249 -0.46417701 37.528862
-14.063926 -0.51252902 39.163536
-13.52046 -1.706517 37.169106
-12.31231 -1.573261 39.121151
-13.61463 -0.58646297 37.151283
-12.396551 -0.50677299 39.085308
-10.93385 -3.5489571 34.639503
-10.773787 -3.733058 33.994984
-11.019676 -3.8212581 35.611465
-11.058772 -2.738368 33.949242
-11.304584 -2.8091609 35.554657
-10.447074 -4.4412861 33.734436
-10.671124 -4.5202579 35.269531
-10.862508 -3.2813029 33.677197
-11.093965 -3.3091829 35.197754
-11.493313 -3.7305601 37.732513
-11.305522 -3.933152 37.204247
-11.637511 -4.0627551 38.767902
-11.603731 -2.8697309 37.143562
-11.945851 -2.9429221 38.700371
-10.957299 -4.6202111 36.866013
-11.253538 -4.7421451 38.31731
-11.364165 -3.4542961 36.759865
-11.425382 -1.1669919 34.571484
-11.255341 -1.6742409 33.919395
-11.504748 -1.712919 35.528374
-11.370126 -0.57486397 33.912052
-11.612145 -0.57770997 35.505707
-11.172336 -1.971732 33.677197
-11.403134 -2.007616 35.202324
-11.326843 -0.73567402 33.669277
-11.544834 -0.68154901 35.160053
-11.984771 -1.323984 37.629635
-11.813438 -1.753261 37.090927
-12.165289 -1.8260421 38.650585
-11.920681 -0.58596998 37.081333
-12.276332 -0.65953302 38.645016
-11.681067 -2.025624 36.674553
-6.1702719 -7.8388958 28.041
-7.5719471 -8.8083639 27.002031
-6.8004489 -7.9276962 29.118736
-6.8180151 -6.8944492 27.472092
-7.2654328 -7.35988 28.838753
-5.0145059 -8.1988516 27.320601
-5.3464522 -8.7848225 28.711174
-5.4044509 -7.676394 26.922977
-5.8166351 -8.2810984 28.330896
-6.8244209 -8.7266922 31.316433
-7.1267219 -8.3178711 30.608572
-7.270175 -8.4880333 32.249825
-7.6256118 -7.763483 30.349447
-7.8751788 -7.921134 32.1726
-5.6210361 -9.2701769 30.230621
-5.7587109 -9.5631113 32.096577
-6.1708598 -8.7998428 29.929008
-6.4188781 -9.1289539 32.06366
-7.1192842 -6.434906 27.305454
-7.2249441 -6.1920171 27.164476
-7.7414608 -6.6467218 28.542297
-7.6558452 -5.3633418 26.87541
-8.2620153 -5.7872291 28.289907
-5.826818 -7.0120072 26.496071
-6.3268909 -7.62745 27.909817
-6.41505 -6.1508508 26.127071
-8.1990004 -7.3267312 30.793865
-8.1922789 -7.0433102 30.13372
-8.4564896 -7.2845559 32.071362
-8.8000669 -6.1386619 29.928677
-9.10357 -6.4293089 31.984209
-2.389694 -9.239397 27.209993
-3.232729 -8.8147793 26.943958
-3.4812651 -9.4984179 28.349697
-3.4782741 -8.3984747 26.439964
-3.752444 -9.1533928 27.85993
-1.130109 -9.2022495 26.739332
-1.226063 -9.9601231 28.171162
-1.223035 -8.8437853 26.19919
-2.743551 -10.645258 30.775232
-3.564837 -10.14053 29.941179
-3.8630781 -10.462165 32.04982
-1.30925 -10.611352 29.806688
-3.061044 -8.367919 26.172726
-3.942277 -7.7717209 25.91037
-3.413655 -10.136522 29.804726
-7.1403618 -8.9895153 34.518688
-7.3882079 -8.6756964 33.878601
-7.5591221 -8.8404531 35.459595
-8.0207443 -8.0446262 33.734921
-8.1822433 -8.2375507 35.314819
-5.901381 -9.6986179 33.691143
-6.0583858 -9.8926697 35.25098
-6.5423241 -9.2644405 33.644367
-7.3696508 -9.5274773 37.591766
-7.7523069 -9.0711403 37.029648
-7.9767818 -9.3389521 38.577847
-8.3652439 -8.4650326 36.881863
-8.6330481 -8.6486988 38.354523
-6.1926088 -10.15132 36.800903
-6.323894 -10.460736 38.356308
-8.42799 -7.7325549 34.255169
-8.5586004 -7.4593158 33.677197
-8.8176327 -7.497766 35.193813
-9.3079634 -6.4833488 33.629436
-8.9615326 -7.9447422 37.264275
-9.015789 -7.6925211 36.703079
-2.8525829 -11.081812 34.250187
-3.929656 -10.638491 33.633667
-3.0553889 -11.588261 37.27058
-8.1516762 -4.292789 26.636948
-8.0842524 -4.3304191 26.567144
-8.8294239 -4.6848049 28.068317
-8.4271479 -3.262655 26.357725
-9.1931105 -3.5509191 27.785084
-6.8827772 -5.132318 25.703941
-9.5405827 -5.0981612 30.17853
-8.777916 -1.6341 26.223438
-8.6741066 -1.96314 26.167126
-8.8650379 -0.69911802 26.135447
-10.555367 -1.982108 29.941601
-3.9636199 -6.7364488 24.720549
-10.004256 -5.5031891 34.114529
-10.527874 -5.6368442 37.057384
-11.230786 -1.9007469 33.988651
-12.960529 -7.0714598 41.785305
-12.827637 -7.008791 41.273243
-13.217566 -7.2773318 42.828503
-13.164257 -6.2961292 41.143085
-13.621161 -6.3893099 42.69622
-12.281045 -7.7125802 40.819107
-12.654107 -7.960443 42.366344
-12.689846 -6.9103632 40.691776
-13.082517 -7.1282811 42.2146
-13.826452 -7.5337262 44.801903
-13.71105 -7.4679141 44.436573
-14.20764 -7.7307339 45.926785
-14.069455 -6.6555471 44.244476
-14.561664 -6.8821859 45.74881
-13.07063 -8.2174902 43.872673
-13.501589 -8.5071449 45.338734
-13.501815 -7.358604 43.71698
-12.806721 -6.9758372 45.648819
-13.694975 -5.3174262 41.507572
-13.531542 -5.36272 41.031898
-13.927815 -5.609313 42.577579
-13.815572 -4.5011559 40.929199
-14.244909 -4.647172 42.488476
-13.098244 -6.0367608 40.556934
-13.499742 -6.209219 42.071659
-13.476374 -5.0712881 40.44611
-12.509882 -4.7231522 42.408852
-14.580696 -5.6807928 44.498783
-14.405353 -5.7566538 44.112186
-14.901766 -5.9571528 45.595764
-14.706081 -4.8132582 44.000565
-15.215825 -4.96805 45.478115
-12.669615 -5.8438568 44.039497
-13.178781 -6.077291 45.477699
-12.995365 -4.9022131 43.902294
-13.511625 -5.0934792 45.337696
-10.357055 -7.8833818 41.289474
-11.550479 -8.5618095 40.392708
-10.723108 -7.983429 42.36095
-10.793343 -6.9420209 40.662292
-11.185727 -7.1992478 42.17485
-9.4550209 -8.5790949 40.406311
-9.7997551 -8.8732691 41.910454
-9.9741697 -7.8746362 40.213425
-10.378312 -8.0603323 41.670666
-11.084758 -8.5937624 44.215519
-11.13352 -8.2910652 43.842644
-11.574783 -8.6065826 45.258595
-11.608549 -7.4685841 43.645828
-12.07054 -7.7470431 45.082542
-10.159542 -9.1877966 43.355625
-10.552617 -9.5314064 44.748325
-10.750048 -8.3667479 43.113323
-11.342175 -6.1977992 40.952904
-11.230845 -6.1226969 40.507118
-11.643608 -6.3234429 42.009453
-11.65347 -5.173759 40.385872
-12.064198 -5.376615 41.868526
-10.531455 -7.041513 40.12199
-10.839592 -7.3017492 41.48177
-11.082256 -6.0657892 39.955482
-12.197371 -6.6231551 43.860439
-12.074806 -6.5683942 43.475765
-12.53842 -6.8160572 44.876442
-12.507383 -5.573319 43.313465
-13.000603 -5.7230721 44.699444
-13.784435 -7.5110679 48.167004
-14.711519 -8.0191298 47.354961
-15.24114 -8.2978697 48.751888
-15.080684 -7.1212521 47.177998
-14.840461 -7.0085502 49.180592
-12.932096 -8.1297026 47.252151
-13.467101 -8.4804573 48.600327
-13.328076 -7.263011 47.051022
-13.875893 -7.5621352 48.378426
-14.524892 -7.938489 49.261696
-15.018313 -8.1836729 49.261696
-15.018313 -7.0925169 49.261696
-13.732003 -8.6625957 49.06596
-14.123751 -7.72506 48.978397
-14.471944 -5.6334319 47.802742
-15.427793 -6.1566329 47.019417
-14.919054 -5.9615622 48.923786
-14.577421 -4.7652531 47.411652
-15.20157 -4.9723282 48.769497
-13.708044 -6.323915 46.860413
-14.27667 -6.5612588 48.18766
-14.064821 -5.2764502 46.700203
-14.628788 -5.540143 48.037865
-15.270474 -5.9179249 49.157246
-15.373401 -6.130199 49.261696
-15.723253 -5.1659818 49.261696
-14.594198 -6.759336 48.978397
-15.052481 -5.6611381 48.978397
-12.020187 -9.1791306 46.916634
-12.030916 -8.964571 46.640423
-12.499763 -9.3243732 47.945366
-12.535245 -8.0734177 46.440098
-12.998243 -8.397913 47.704613
-12.722177 -9.8473043 48.978397
-13.080208 -7.1677232 46.461021
-13.017293 -7.119523 46.270912
-14.056945 -7.814887 48.955563
-14.253547 -3.333842 41.342201
-14.057271 -3.564837 40.866405
-14.490652 -3.68435 42.405003
-14.263191 -2.5831971 40.795872
-14.704178 -2.6660559 42.336998
-12.348656 -3.613023 40.786671
-12.804168 -3.759989 42.30817
-12.571352 -2.6465509 40.710621
-13.035632 -2.731704 42.231625
-13.854633 -3.2313089 44.785778
-14.994962 -3.8080051 43.902901
-15.48196 -3.919523 45.365604
-15.259135 -2.7673681 43.724312
-14.410616 -2.628093 45.810951
-13.287688 -3.8949089 43.797504
-13.813779 -4.0261569 45.213097
-13.537293 -2.8381889 43.706184
-14.055675 -2.9977851 45.148476
-14.577358 -1.1391259 41.253555
-14.398584 -1.572857 40.754288
-14.834969 -1.619434 42.293438
-14.467258 -0.53660202 40.738834
-14.909388 -0.540977 42.271683
-12.736646 -1.603828 40.66441
-13.194369 -1.664399 42.183681
-12.808245 -0.53257197 40.640789
-13.280169 -0.55734098 42.149998
-14.146935 -1.10049 44.672085
-15.357297 -1.6730191 43.637199
-14.530786 -1.592738 45.74596
-15.438589 -0.55418301 43.628063
-14.605772 -0.52112401 45.723019
-13.688058 -1.740893 43.647053
-14.23 -1.824865 45.069584
-13.786315 -0.59389597 43.621738
-14.322685 -0.62777901 45.047455
-12.227007 -3.935236 40.712612
-12.029525 -4.1328449 40.269958
-12.431594 -4.3433819 41.760155
-12.328646 -3.043704 40.182476
-12.753254 -3.1626379 41.65836
-13.147169 -4.1483011 43.602207
-12.871883 -4.5061598 43.179813
-13.3643 -4.688097 44.606762
-13.198659 -3.3376451 43.113464
-12.74337 -1.438833 40.615894
-12.550733 -1.918083 40.179104
-12.983772 -1.942039 41.635704
-12.663948 -0.649014 40.155853
-13.076012 -0.63735402 41.549381
-13.610372 -1.648683 43.397381
-13.412291 -2.008435 43.010979
-13.556838 -0.70507801 42.993641
-15.013778 -3.5224011 47.579365
-14.82265 -3.7701809 47.29707
-15.442444 -3.9374101 48.65575
-15.001736 -2.7248571 47.215214
-15.633762 -2.8521869 48.565727
-14.374288 -4.184948 46.570793
-14.911964 -4.4424391 47.877129
-14.619185 -3.066792 46.507294
-15.196202 -3.1271789 47.782349
-15.653803 -3.706841 48.978397
-15.843259 -4.0339961 49.141994
-15.915934 -2.8766561 49.034332
-15.306738 -1.207548 47.433903
-15.13472 -1.6493829 47.15501
-15.767449 -1.731931 48.505325
-15.204977 -0.55218202 47.125298
-15.834184 -0.57443702 48.463753
-14.789824 -1.7968349 46.440098
-15.362101 -1.891643 47.712463
-14.887503 -0.714495 46.440098
-15.444285 -0.63147497 47.672874
-16.044352 -1.281273 48.978397
-16.002363 -1.729019 48.978397
-16.083403 -0.5948 48.978397
-14.043164 -4.6808782 46.210785
-14.703523 -1.514549 46.160458
-7.7795901 -10.143487 40.511047
-8.2530098 -9.614439 40.090141
-8.5351534 -9.9074011 41.494068
-8.8878307 -8.9593735 39.894897
-8.5414019 -10.717899 43.356342
-9.4317732 -8.5046778 40.179897
-3.10641 -12.283931 40.103313
-9.0437222 -11.614199 45.974285
-12.669978 0.80026799 1.5874979
-12.477104 2.3620989 1.5874979
-18.040218 1.070608 27.853546
-18.047087 1.538311 27.963356
-15.073416 1.0637341 24.516781
-16.59392 1.086486 26.093758
-17.382687 0.52513301 27.00688
-17.37672 1.334335 27.011946
-15.796131 0.54387498 25.234447
-16.568167 0.543024 26.062092
-15.792999 1.332695 25.232397
-16.557402 1.4214751 26.094538
-14.991005 1.727196 24.628998
-16.39123 1.877502 26.221153
-17.326452 1.618163 27.088184
-15.695305 1.7279969 25.327108
-16.35512 1.9254659 26.235786
-15.544064 1.981277 25.464489
-16.135231 2.1871791 26.421869
-16.143551 2.1871879 26.431746
-12.658183 1.017298 1.5874979
-12.690697 0.41907001 0.82819998
-12.690697 0.41907001 1.5874979
-12.619535 1.3776489 0.82819998
-12.619536 1.3776489 1.5874979
-12.684799 0.52758402 0.82819998
-12.402126 0.51222098 1.871102
-12.596446 1.591436 0.82819998
-12.362329 1.560743 1.823181
-11.656611 0.87651402 2.5970581
-11.575963 0.48301801 2.6972101
-11.543883 1.446686 2.640492
-12.357423 2.9127469 1.5874979
-12.48439 2.317148 0.82819998
-12.48439 2.317148 1.5874979
-12.31789 3.079834 0.82819998
-12.425488 2.5995791 0.82819998
-12.282368 2.5684731 1.733947
-12.178298 3.5897789 0.82819998
-12.173139 3.588367 1.592738
-11.588312 2.6086199 2.3987279
-11.473062 2.3925731 2.5620739
-11.353791 3.409426 2.428684
-10.01211 1.091154 3.1749971
-11.01335 0.54557598 -2e-06
-11.398476 0.56230903 2.870779
-11.01335 1.636732 -2e-06
-11.336772 1.67849 2.814301
-9.010869 0.54557598 -2e-06
-9.0357933 0.54638702 3.1749971
-9.010869 1.636732 -2e-06
-9.010869 1.636732 3.1749971
-8.5698051 0.91892898 4.1567278
-11.01335 0.54557598 3.1749971
-11.01335 0.54557598 3.1749971
-10.975106 1.631794 3.1749971
-10.975106 1.631794 3.1749971
-8.6848946 0.53496599 4.0026579
-8.0405321 0.495343 5.1051931
-8.5734291 1.555282 3.940758
-7.9634829 1.478407 5.043077
-10.976366 3.6516659 2.709924
-11.01335 2.7278891 -2e-06
-11.225775 2.780242 2.703454
-11.01335 3.8190451 -2e-06
-11.074497 3.8430281 2.5514109
-9.010869 2.7278891 -2e-06
-9.010869 2.7278891 3.1749971
-9.010869 3.8190451 -2e-06
-9.010869 3.8190451 3.1749971
-10.01211 3.2734671 3.1749971
-10.767784 2.667367 3.1749971
-10.767784 2.667367 3.1749971
-10.486961 3.623996 3.1749971
-10.486961 3.623996 3.1749971
-8.3833237 2.5295961 3.8448579
-7.7794371 2.3386641 4.9887981
-9.010869 3.8190451 3.1749971
-7.587934 3.1698959 4.8316021
-7.413641 0.76993299 5.8702979
-7.387053 0.45476601 5.940331
-7.33637 1.3616461 5.8747039
-7.1351199 2.2946689 5.832345
-7.143075 2.2276521 5.8484612
-7.0073581 2.970099 5.6871839
-11.831338 4.5984921 1.5874979
-11.883303 4.466002 0.82819998
-11.883303 4.466002 1.5874979
-11.523733 5.3225842 0.82819998
-11.523732 5.3225842 1.5874979
-11.330896 4.4604411 2.096173
-11.270761 4.2257509 2.234385
-11.119766 6.1280751 1.5874979
-11.1295 6.109396 0.82819998
-11.1295 6.109396 1.5874979
-10.758606 6.7434011 0.82819998
-11.05712 6.1428981 1.636007
-10.554675 5.730011 2.2674451
-11.591653 5.1732779 0.82819998
-10.894778 4.8562608 2.354593
-11.148971 6.0720401 0.82819998
-10.680367 5.833055 2.1095929
-9.010869 4.9102011 -2e-06
-9.010869 4.9102011 3.1749971
-9.010869 6.0013571 -2e-06
-9.4096394 6.2633572 2.965097
-9.7405596 5.3185282 3.1749971
-10.163938 4.4808769 3.1749971
-10.163938 4.4808769 3.1749971
-9.9412241 5.459466 2.9335661
-9.010869 4.9102011 3.1749971
-7.3842831 3.925905 4.6233749
-9.010869 6.0013571 3.1749971
-9.010869 6.0013571 3.1749971
-10.024883 7.6476002 1.67228
-10.675737 6.868032 0.82819998
-10.472822 6.7331128 1.828616
-10.18838 7.5695462 0.82819998
-10.188381 7.5695472 1.5874979
-9.010869 7.0925131 -2e-06
-9.1348438 7.1955118 2.6470561
-9.3928099 8.5370579 0.82819998
-8.8731222 8.0562201 2.297452
-8.8673773 6.6845808 3.1749971
-9.7768965 6.280138 2.651154
-9.5755568 7.113349 2.353657
-8.7255478 6.8548541 3.1749971
-8.7255478 6.8548541 3.1749971
-8.2323494 7.5351982 3.119009
-6.9006038 3.6684949 5.4404979
-8.8673773 6.6845808 3.1749971
-6.0071468 1.091154 -2e-06
-7.008388 0.54557598 -2e-06
-9.0060616 0.800089 3.1749971
-7.008388 1.636732 -2e-06
-8.7895002 2.0960131 3.1749971
-5.0059061 0.54557598 -2e-06
-5.0059061 0.54557598 -2e-06
-5.0059061 1.636732 -2e-06
-5.0059061 1.636732 -2e-06
-7.1756449 1.235603 6.063045
-8.1754761 0.68993902 4.8672991
-7.2733898 0.57835501 6.0454402
-8.0420046 1.861992 4.7951541
-7.176744 1.678841 5.9585772
-5.962111 0.63432002 7.18924
-6.9314132 2.3104849 6.0381522
-5.8907728 1.9162821 7.047791
-6.0071468 3.2734671 -2e-06
-7.008388 2.7278891 -2e-06
-8.4151907 3.286448 3.1749971
-7.008388 3.8190451 -2e-06
-7.9298992 4.3270521 3.1749971
-5.0059061 2.7278891 -2e-06
-5.0059061 2.7278891 -2e-06
-5.0059061 3.8190451 -2e-06
-5.0059061 3.8190451 -2e-06
-6.7126379 3.6490359 5.646946
-7.75738 3.069582 4.6493802
-7.0042982 2.726316 5.7936931
-7.4350762 4.0806608 4.406754
-6.7678008 3.690968 5.566287
-6.657475 3.6071031 5.7276049
-5.716445 3.0786231 6.8072138
-6.3156552 4.6780658 5.357378
-5.4746809 4.1919422 6.4520998
-2.0021839 1.091154 -2e-06
-3.0034249 0.54557598 -2e-06
-3.0034249 0.54557598 -2e-06
-3.0034249 1.636732 -2e-06
-3.0034249 1.636732 -2e-06
-1.0009429 0.54557598 -2e-06
-1.0009429 0.54557598 -2e-06
-1.0009429 1.636732 -2e-06
-1.0009429 1.636732 -2e-06
-4.153512 2.3163431 7.9374981
-4.6822519 0.83966702 7.9374981
-4.164104 2.297744 7.9374981
-2.0021839 3.2734671 -2e-06
-3.0034249 2.7278891 -2e-06
-3.0034249 2.7278891 -2e-06
-3.0034249 3.8190451 -2e-06
-3.0034249 3.8190451 -2e-06
-1.0009429 2.7278891 -2e-06
-1.0009429 2.7278891 -2e-06
-1.0009429 3.8190451 -2e-06
-1.0009429 3.8190451 -2e-06
-2.9099021 4.6183481 7.548059
-3.762645 3.500361 7.7214661
-3.696805 4.5687828 7.2777462
-1.268104 4.8315439 7.8060312
-5.5009832 1.019956 7.4688849
-6.472775 0.51231003 6.806294
-5.782362 0.43178999 7.3256431
-6.416399 1.5264781 6.7269521
-5.7454638 1.320942 7.2662082
-5.1417289 0.56237298 7.71281
-4.5145102 0.459604 8.7621679
-5.0979338 1.6721129 7.6105299
-4.3727999 1.409039 8.6673985
-3.4802041 0.58560902 9.9873209
-3.473793 0.39318901 10.048072
-2.6231191 0.28218299 12.188437
-3.351651 1.132852 9.9592371
-2.5624449 0.85709298 11.894418
-5.2579169 2.903342 7.1856332
-6.2780099 2.4211569 6.6141071
-5.692575 2.2218781 7.11308
-6.098485 3.3348141 6.3965492
-5.4975739 3.073282 6.9630752
-4.9847908 2.716651 7.4149241
-4.0659142 2.1928649 8.6085434
-4.8252039 3.6840651 7.141881
-3.76054 2.792273 8.4792976
-3.8225391 2.0297151 8.9841976
-3.8120251 2.048182 8.9841976
-3.557056 2.624377 8.8954659
-3.246345 1.838539 9.2523975
-4.6822519 0.83966702 7.9374981
-3.6759319 0.646254 9.2523975
-4.164104 2.297744 7.9374981
-3.2710121 1.7974761 9.2523975
-2.846103 1.5366 10.468351
-1.931429 3.189151 9.2523975
-1.9303679 3.187381 9.2750359
-2.3968649 1.331791 11.692834
-3.0259459 0.550596 10.778605
-2.57057 0.454961 12.379432
-2.7663081 1.509378 10.6301
-2.2898569 1.284258 12.325344
-2.466222 1.438224 11.306602
-2.300046 1.187283 12.60085
-1.496601 2.4804039 11.183213
-1.342366 2.2175691 12.506105
-2.3528709 3.8634181 8.7623186
-3.5034659 3.2183471 7.9374981
-3.0152769 2.7385521 9.1387682
-3.122927 3.9550829 7.7881021
-2.7541571 3.5284331 8.8373985
-1.66012 4.4546881 7.9374981
-1.276623 3.5027471 9.2523975
-1.2227761 4.594625 7.9374981
-1.007547 3.846566 9.1804028
-1.5069309 2.430485 11.2873
-2.4427171 2.2605381 10.316521
-1.982801 1.74238 12.24705
-2.1536801 2.733948 10.076269
-1.5886689 2.12344 12.149449
-1.049034 2.8531489 10.838128
-0.900307 2.448041 12.392238
-0.846847 3.1803479 10.377254
-0.65268201 2.5504601 12.253072
-6.0071468 5.4557791 -2e-06
-7.008388 4.9102011 -2e-06
-7.394124 5.1910958 3.1749971
-7.008388 6.0013571 -2e-06
-7.008388 6.0013571 3.1749971
-5.0059061 4.9102011 -2e-06
-6.478488 6.2956691 3.1758449
-5.0059061 6.0013571 -2e-06
-5.7808242 6.9403148 3.1749971
-6.022975 5.471879 4.9831491
-7.0515981 4.9445739 4.1703229
-6.4615788 4.551568 5.2895851
-6.6182709 5.6909709 3.9166939
-6.1254468 5.298944 5.0312819
-5.8349881 5.7535691 4.8712549
-5.1957312 5.0919189 6.0409532
-5.4051309 6.4897399 4.4763222
-4.893641 5.8640208 5.6527839
-6.0071468 7.6380911 3.1749971
-7.008388 7.0925131 -2e-06
-7.008388 7.0925131 3.1749971
-7.008388 8.1836691 -2e-06
-7.008388 8.1836691 3.1749971
-5.0059061 7.0925131 -2e-06
-5.199482 7.3981981 3.1749971
-5.0059061 8.1836691 -2e-06
-5.0059061 8.1836691 3.1749971
-5.2686448 6.676074 4.3643489
-7.008388 7.0925131 3.1749971
-5.8160372 5.8796182 4.7471962
-7.008388 8.1836691 3.1749971
-7.008388 8.1836691 3.1749971
-4.977159 7.0550652 4.1174612
-4.584713 6.46838 5.2618852
-4.5955858 7.4876928 3.7774889
-4.2111559 7.0061402 4.919971
-2.0021839 5.4557791 -2e-06
-3.0034249 4.9102011 -2e-06
-3.0034249 4.9102011 -2e-06
-3.0034249 6.0013571 -2e-06
-3.8958199 8.0504141 3.4337339
-1.0009429 4.9102011 -2e-06
-1.0009429 4.9102011 -2e-06
-1.0009429 6.0013571 -2e-06
-1.0009429 6.0013571 -2e-06
-2.457541 6.704102 6.2025762
-4.0484958 6.458827 5.6625452
-3.4489419 5.570395 6.7586198
-3.6107509 7.1917739 5.0917459
-3.2000921 6.3868308 6.199338
-1.190371 5.8582511 7.1987629
-1.263611 7.5630279 5.5841322
-1.138057 6.6875129 6.5362039
-2.0021839 7.6380911 -2e-06
-3.0034249 7.0925131 -2e-06
-3.4924109 8.3315105 3.1749971
-3.0034249 8.1836691 -2e-06
-3.1198089 8.4785633 3.1749971
-1.0009429 7.0925131 -2e-06
-1.3507659 8.9365721 3.1749971
-1.0009429 8.1836691 -2e-06
-1.050514 8.9840155 3.1749971
-2.044425 7.7979922 5.0870552
-3.239419 7.7396612 4.566287
-2.9655299 6.9885759 5.7073421
-2.9790249 8.1167603 4.1008501
-2.7367799 7.4523149 5.2435961
-1.178979 8.1514502 4.804184
-1.037608 7.2760558 5.9708252
-1.049441 8.4719276 4.2961812
-0.92836303 7.7521472 5.4404979
-4.9689031 4.4682012 6.656898
-5.8749199 4.11619 6.1684241
-5.7224879 4.7703781 5.8702979
-4.63482 4.5549698 6.7991972
-4.1755672 4.012372 7.335299
-4.4155388 5.2791891 6.4653959
-4.0166411 4.7912931 7.010397
-3.2061999 3.1407011 8.8373985
-4.480391 5.7704811 6.0386128
-4.1947942 5.8905778 6.107183
-3.8543229 6.477211 5.7772021
-1.8541909 5.050292 7.5956988
-2.980509 4.8762488 7.3887091
-2.42665 3.939908 8.5874615
-2.8179009 5.637589 6.960784
-2.521548 5.057219 7.425406
-1.0259579 5.0589471 7.7102509
-0.90682101 4.4278302 8.7673407
-0.97106302 5.8518119 7.2327638
-0.819893 4.6019778 8.5156803
-1.285324 3.192009 10.144738
-2.2219999 3.7291951 8.9841976
-0.68796301 3.5050459 9.9121227
-0.46128699 2.657737 11.909245
-0.588624 4.2854691 8.9841976
-1.739415 6.3231249 6.7553172
-2.7017059 6.265377 6.5220451
-2.479537 5.69099 7.04391
-2.4993119 6.8016868 6.0883861
-0.890315 6.4994898 6.7495551
-0.76062298 5.8315201 7.2749391
-0.77253997 7.0402932 6.2763982
-1.235001 4.3139949 8.8373985
-11.643871 1.08736 21.722408
-11.579657 1.565168 21.76256
-7.8187571 1.085279 19.510368
-9.1277885 1.0665081 20.171286
-10.084067 0.530976 20.723888
-10.036285 1.344692 20.70116
-7.967957 0.54278302 19.580776
-8.5449362 0.545084 19.874485
-7.9674168 1.633937 19.581909
-8.5561266 1.574669 19.881411
-7.625968 2.0446849 19.478209
-8.7534828 2.065428 20.178188
-9.9127665 1.811205 20.766615
-9.7186203 2.1229961 20.879187
-7.8203602 1.9935091 19.566036
-8.4003229 2.1418819 19.99832
-8.1407614 2.5065751 20.148376
-13.027423 1.0789419 22.73547
-13.999054 0.54184997 23.549398
-13.998016 1.330725 23.55098
-12.075485 0.55562103 22.017237
-12.840955 0.54538798 22.581327
-12.057315 1.298973 22.025341
-12.795072 1.528964 22.632282
-14.666495 1.099668 24.141912
-14.798127 0.54268903 24.256582
-15.624463 0.54768199 25.062656
-14.753614 1.50239 24.304998
-15.251736 2.144614 25.439001
-13.682238 0.552311 23.276487
-12.571463 0.54098397 26.325468
-13.186646 2.25015 23.81057
-13.022872 2.392381 25.670582
-12.854079 1.900602 22.941154
-13.928326 1.726048 23.680656
-13.7809 2.028877 23.85977
-11.96818 1.764384 22.171093
-12.575334 2.0545981 22.894867
-11.855972 1.9782799 22.279285
-12.473602 2.1833949 23.025398
-13.954736 2.3658581 24.906771
-14.527373 2.056622 24.550919
-14.949959 2.3538389 25.741161
-14.32277 2.243155 24.732964
-14.924717 2.35708 25.766834
-12.969416 2.369698 24.072388
-13.012708 2.3925021 25.675875
-12.91012 2.385227 24.123913
-13.002543 2.392622 25.681168
-10.375401 1.092481 20.89039
-10.739024 0.54278302 21.120129
-11.508824 0.546368 21.630304
-10.722395 1.489491 21.153475
-11.261409 2.1237321 22.030127
-9.2708616 0.542781 20.255291
-9.9885397 0.53506601 20.670216
-9.2455196 1.8094389 20.341671
-9.4321938 2.639673 22.037474
-10.761847 1.242347 25.186056
-10.821672 0.568995 25.219814
-11.037085 0.546413 25.662748
-11.192512 2.4565151 23.924997
-10.945597 1.625927 25.704945
-7.9434319 0.455266 24.904161
-8.6891251 0.51834399 25.889229
-7.8726802 1.411092 24.928993
-8.6265373 1.560469 25.952747
-9.8059931 2.4462891 21.680744
-10.535733 2.0181029 21.360794
-10.957449 2.3679049 22.425581
-10.403656 2.2084939 21.512512
-10.904177 2.3784809 22.495729
-8.9018307 2.5050349 20.824184
-9.1146355 2.89503 22.284678
-8.4985561 2.742589 21.095007
-8.6542788 3.6382771 22.609459
-10.106274 3.309721 24.794235
-10.940927 2.5494699 24.060884
-10.776848 2.664252 25.788021
-10.516153 2.758637 24.177942
-10.549444 3.6403821 25.905113
-9.6008377 3.1947761 23.822205
-8.4633503 2.5710781 26.07859
-9.3042469 3.9500079 23.830738
-8.2232599 3.4950249 26.220041
-8.3088093 2.4763429 20.245255
-7.9569588 2.620826 20.176044
-6.7252998 5.0720949 21.280298
-12.659183 2.183593 23.178917
-13.806212 2.3857391 25.051451
-14.843675 2.367533 25.844368
-12.901581 2.3862841 24.130936
-12.992379 2.3927431 25.68646
-10.039302 5.6057458 26.709553
-8.3095932 4.5290198 22.79747
-9.0988026 4.055552 23.582481
-7.7211208 4.2083249 21.782782
-8.3438025 4.5470858 22.856783
-7.4354219 4.975924 22.003988
-8.0534925 5.3421421 23.080452
-9.4857302 5.1690669 25.128208
-9.6959791 4.325109 24.759087
-10.246856 4.571125 26.024527
-9.4085541 5.1272449 24.957497
-9.8913136 5.4280801 26.1999
-8.9764118 4.8902531 24.040312
-9.5847139 5.2227669 25.370327
-8.6361198 5.7284222 24.279493
-9.1666231 6.1027389 25.58445
-7.7200642 5.9692369 23.237446
-7.2124462 5.632688 22.300224
-7.7059469 6.11237 23.358625
-7.4134498 6.6854372 23.599159
-8.7710857 6.6553512 25.58198
-9.0805264 5.8344188 25.132179
-9.5645905 6.0946531 26.342762
-9.2458944 6.7797699 26.616518
-8.2359533 6.497807 24.520626
-8.7422628 6.879158 25.83317
-7.881525 7.1349239 24.797485
-8.3219986 7.5421901 26.068504
-4.2156949 0.76084203 17.092588
-5.2069969 0.44953001 17.874445
-2.7317281 0.29844001 14.802687
-3.9908919 0.43786299 16.849463
-2.6586781 0.762972 14.866078
-3.9464259 1.281273 16.974455
-5.7832112 1.049414 18.471491
-5.944026 0.40031999 18.537809
-6.973083 0.54553902 19.127502
-6.4074368 1.633299 18.88398
-6.9728899 1.636695 19.127934
-4.848392 0.53300601 17.583185
-5.6802559 0.63760602 18.322826
-4.7622728 1.557271 17.693281
-5.5460472 1.80582 18.429701
-4.1504278 2.2630761 17.461918
-3.9097121 2.131361 17.234053
-3.812206 2.9011011 17.517948
-5.6703691 2.9444671 18.739275
-6.2622972 2.4042671 18.86739
-6.8562241 2.5742741 19.278015
-6.0177221 2.818933 18.885628
-6.4342542 3.203794 19.615854
-4.6295428 2.4884169 17.904015
-5.2818918 2.8982379 18.512899
-4.4439521 3.4000399 18.207901
-5.0800619 3.8702371 18.961496
-2.3899081 1.312798 14.767219
-2.544332 0.45570701 14.140594
-3.071137 0.55307102 15.703045
-2.282536 1.224021 14.173642
-2.8217671 1.556833 15.861883
-2.2111671 1.282553 13.892475
-2.5495989 1.170251 15.031097
-1.324746 2.1865311 13.995551
-1.536364 2.4911871 15.319533
-1.273651 0.71851099 20.239206
-3.7689631 0.69470799 16.679909
-2.280894 0.44337901 20.611006
-3.4590089 1.914467 16.81336
-2.3041649 1.278821 20.746428
-2.8558559 1.669984 16.008467
-0.75787401 0.34212601 20.014811
-1.825949 2.957478 16.250427
-0.75414401 1.251157 20.245977
-1.512097 2.491359 15.288674
-1.946324 1.783085 14.398208
-2.5612271 2.3025839 16.206327
-1.638899 2.1807489 14.748209
-2.346257 3.032548 16.67375
-0.87684101 2.430285 14.115583
-1.070411 2.8948071 15.641804
-0.732584 2.5216489 14.371377
-0.877092 3.292686 16.167183
-2.3723209 3.9143729 17.346521
-3.2050929 2.882498 17.109039
-3.8481951 3.3775091 17.787443
-2.9473259 3.7532091 17.496746
-3.47422 4.4018321 18.218811
-1.266603 3.548454 16.603012
-0.754632 2.087893 20.546043
-1.077179 4.0785022 17.050499
-1.286492 4.889143 17.735733
-5.3205371 0.99439597 22.437952
-7.6225662 0.547221 19.416189
-6.3077378 0.48050499 23.19035
-7.5861988 2.7824719 20.1583
-6.275526 1.426736 23.281359
-4.3198342 0.48748499 21.699167
-5.0985961 0.55863798 22.230671
-4.31566 1.438959 21.818335
-5.024086 1.6419441 22.33497
-6.9978161 1.230757 23.9368
-7.0798941 0.55162603 23.946651
-7.931901 0.62370998 24.907434
-7.001956 1.634889 24.024208
-7.831852 1.87274 25.002375
-5.9451971 0.62512702 22.896839
-6.8925691 0.70519799 23.77187
-5.842967 1.851553 23.025522
-6.766634 2.141149 23.932976
-6.9603848 3.7924531 20.659678
-7.3242898 3.096 20.405836
-6.1283312 2.3369441 23.406757
-6.9986 3.813715 20.71401
-7.7144189 4.2032642 21.771467
-4.2032208 2.300344 21.97987
-4.8740091 2.6680651 22.544819
-5.7399869 4.3887858 19.836912
-4.696651 3.5606179 22.824217
-6.53584 3.5443921 24.280607
-6.8411579 2.659112 24.189751
-7.6108599 2.975703 25.163425
-6.6172509 3.618459 24.398123
-7.3398142 3.988935 25.381813
-5.6272259 3.0039279 23.23708
-6.3692379 3.5769551 24.147287
-5.3305311 4.0902948 23.558538
-6.0821681 4.621223 24.513168
-2.324718 1.256241 20.750132
-2.9047711 0.53162199 20.909809
-3.6216071 0.63279903 21.286188
-2.8411939 1.553575 21.054665
-3.45912 1.870316 21.432796
-1.162881 0.628407 20.186607
-1.698841 0.90288299 20.426661
-1.044799 1.7257659 20.459513
-1.328822 2.3021281 20.751497
-3.8730609 1.922067 21.678814
-4.50699 0.67288703 21.839161
-4.3077888 2.2163169 22.023849
-2.0378001 3.329109 21.415243
-2.7625611 2.489562 21.30995
-3.302114 2.977479 21.759085
-2.6352589 3.3642321 21.650223
-3.098561 3.9435921 22.147785
-0.97764099 2.663281 20.833702
-1.2185071 3.33111 21.216373
-0.93197602 3.491261 21.249767
-1.083636 4.2120628 21.700375
-2.8821039 4.8356729 22.606203
-3.9639151 3.576884 22.400116
-3.577517 4.6156111 22.773197
-4.160109 5.3332829 23.605513
-1.582232 4.0936279 21.717543
-1.2290421 5.0751352 22.30365
-3.9464159 3.5625679 17.949535
-3.7289851 3.6306751 17.859369
-5.0907431 4.5788469 19.439157
-5.4336128 3.806036 19.208342
-6.0563269 4.2688341 20.046553
-5.8410521 5.0022988 20.372086
-4.229826 4.1979632 18.536995
-4.801908 4.7149892 19.319931
-4.0628428 4.83463 18.889776
-4.5294938 5.471251 19.70472
-3.7740271 4.724596 18.622169
-4.5971141 5.8930392 20.123055
-5.5801759 5.661335 20.690092
-3.897264 5.4393411 19.264153
-4.2925568 6.108067 20.116278
-4.0481019 6.7054782 20.542799
-1.4472229 3.7533691 16.859673
-2.360106 3.7962699 17.254734
-2.2444601 4.509933 17.7202
-0.48714399 2.711175 14.836806
-0.79783499 3.9285209 16.850691
-0.82017303 4.6145768 17.425886
-1.969738 5.3708668 18.321125
-2.7565579 4.528995 17.941498
-3.179466 5.2158251 18.687056
-2.5921459 5.193162 18.396683
-2.9492421 5.8948498 19.167934
-0.97781801 4.763267 17.568558
-1.143146 5.583324 18.303921
-0.90369099 5.3834229 18.085049
