# .PCD v0.7 - Point Cloud Data file format
VERSION 0.7
FIELDS x y z
SIZE 4 4 4
TYPE F F F
COUNT 1 1 1
WIDTH 1344
HEIGHT 1
VIEWPOINT 0 0 0 1 0 0 0
POINTS 1344
DATA ascii
-0.51852763 -1.0864524 -0.50942081
-0.51649916 -1.0873014 -0.40311325
-0.5086624 -1.0778966 -0.3367641
-0.56918329 -1.090246 -0.24527794
-0.57215017 -1.0811619 -0.14531185
-0.50071186 -1.0042493 -0.00035386533
-0.50351113 -1.0032305 0.015761308
-0.52741611 -1.0029408 0.19811097
-0.50428331 -1.0890138 0.24853757
-0.5201894 -1.019972 0.32970294
-0.58581138 -1.0995216 0.44217613
-0.58875358 -1.0084264 0.56397635
-0.52077925 -0.91215694 -0.50405073
-0.54963374 -0.93442595 -0.42020714
-0.59642887 -0.96387058 -0.31508708
-0.57880759 -0.90660071 -0.23186405
-0.53212649 -0.96012616 -0.12422599
-0.52593529 -0.92568678 -0.052524131
-0.56077731 -0.95779127 0.065547787
-0.58261353 -0.98288131 0.13019131
-0.5293954 -0.92027205 0.20318329
-0.56834495 -0.97230774 0.38724288
-0.59538287 -0.98508859 0.40971318
-0.50059313 -0.91765428 0.58219033
-0.53051716 -0.88748175 -0.56829005
-0.52362502 -0.80497777 -0.45094109
-0.59655541 -0.83363944 -0.35612556
-0.58741033 -0.86184418 -0.27897909
-0.52344835 -0.89487839 -0.12048001
-0.59635592 -0.88131279 -0.059126884
-0.5510236 -0.85420108 0.044558622
-0.55124313 -0.83536875 0.17939749
-0.52906352 -0.80791253 0.27546868
-0.51924694 -0.87239754 0.37057742
-0.53202975 -0.89971817 0.4655098
-0.52892959 -0.88373888 0.56439614
-0.58810025 -0.75439674 -0.55016363
-0.52260828 -0.70402557 -0.44262454
-0.56596142 -0.71232426 -0.34147322
-0.51918244 -0.77761883 -0.29822263
-0.52487332 -0.71787542 -0.1744905
-0.5179159 -0.74940431 -0.0059925988
-0.53009236 -0.75873333 0.089090325
-0.55768353 -0.70407087 0.15809567
-0.54527843 -0.78419423 0.21386245
-0.5238269 -0.7850706 0.32301563
-0.57424921 -0.71902657 0.48407173
-0.50114787 -0.77457178 0.53324485
-0.5185715 -0.67001683 -0.57564753
-0.5986461 -0.60707366 -0.47827622
-0.56500167 -0.60926354 -0.38034049
-0.51515323 -0.67489159 -0.20449825
-0.53839552 -0.62211025 -0.15267111
-0.50125402 -0.66483402 -0.093240462
-0.51691717 -0.62064028 0.058526408
-0.54054964 -0.64502764 0.17327988
-0.50828063 -0.63047671 0.2285839
-0.53201801 -0.62427998 0.33923206
-0.52462709 -0.64384425 0.43804458
-0.57919323 -0.64321786 0.55273718
-0.59241462 -0.55957913 -0.59460503
-0.56472379 -0.54692024 -0.44071761
-0.52208328 -0.56436551 -0.30659896
-0.50350338 -0.58700943 -0.28455618
-0.54311764 -0.5605092 -0.15306094
-0.56127042 -0.59880984 -0.02730453
-0.56628776 -0.56114304 0.01621823
-0.50725073 -0.52057153 0.14361176
-0.56887853 -0.51373219 0.25285333
-0.53796399 -0.58343512 0.31195474
-0.53980184 -0.55280435 0.42629713
-0.56597805 -0.53459209 0.55298424
-0.53107858 -0.42838994 -0.52518487
-0.50116205 -0.45494583 -0.42795065
-0.59161788 -0.40874225 -0.37710232
-0.54945016 -0.40866625 -0.24417312
-0.58476222 -0.44968098 -0.1174183
-0.5537526 -0.44616577 -0.045340806
-0.50038654 -0.45524156 0.0078175534
-0.51455492 -0.45573217 0.16042314
-0.58933473 -0.45014557 0.29618981
-0.50200742 -0.49953657 0.30343175
-0.52250898 -0.40229982 0.48173034
-0.56368136 -0.41313052 0.56795198
-0.59155643 -0.36537668 -0.56002176
-0.51441252 -0.37401298 -0.49549404
-0.51999319 -0.33398807 -0.35685861
-0.52500594 -0.30893525 -0.2867004
-0.5818153 -0.30176395 -0.17361972
-0.59046453 -0.3854461 -0.07173267
-0.58639318 -0.31978887 0.086929224
-0.59224433 -0.34202954 0.16273844
-0.54501402 -0.3991906 0.21449548
-0.53197128 -0.31469691 0.35339332
-0.53779447 -0.35613334 0.43509525
-0.58004493 -0.34867507 0.51380014
-0.55981922 -0.2617667 -0.59240335
-0.52375787 -0.2760084 -0.4959529
-0.58766812 -0.2747044 -0.38160923
-0.54952294 -0.27600476 -0.21773951
-0.55827332 -0.20182769 -0.19503456
-0.51765448 -0.20972839 -0.069817267
-0.5055213 -0.29520559 0.049086411
-0.57521528 -0.25107473 0.15440561
-0.56622809 -0.21122739 0.29000539
-0.56561607 -0.26307532 0.30332687
-0.58887976 -0.2837128 0.4780252
-0.5122636 -0.26102611 0.52103019
-0.57583088 -0.17272469 -0.55960882
-0.5507558 -0.19035456 -0.477658
-0.58680272 -0.15096985 -0.30579495
-0.50450563 -0.10438655 -0.23480314
-0.54247916 -0.12424964 -0.19402204
-0.55647546 -0.17652202 -0.044711884
-0.56468415 -0.19468474 0.082119405
-0.56774896 -0.19845966 0.14049813
-0.59569764 -0.10915664 0.21689901
-0.5190863 -0.13508844 0.3258296
-0.52682775 -0.18701535 0.46477461
-0.55066735 -0.15490763 0.53785002
-0.54529911 -0.028153002 -0.57036793
-0.5712195 -0.025530718 -0.43765646
-0.58110452 -0.018812604 -0.33132246
-0.56874919 -0.081648886 -0.26142895
-0.56315154 -0.065607026 -0.13743815
-0.51842308 -0.021977261 -0.033071488
-0.59188747 -0.062058117 0.092938595
-0.55415034 -0.022428736 0.13036139
-0.55132085 -0.0089435056 0.24358587
-0.55113822 -0.055321626 0.375579
-0.56936508 -0.089193806 0.45085087
-0.56064105 -0.048922844 0.58701873
-0.51823723 0.036086071 -0.52051687
-0.5082882 0.064431809 -0.44561946
-0.56213909 0.014014385 -0.31884196
-0.58001274 0.053282559 -0.2051075
-0.56492728 0.099010997 -0.10609984
-0.57599241 0.087594286 -0.09834794
-0.5449844 0.038861517 0.062247511
-0.52203107 0.058704473 0.1476638
-0.57922578 0.0540138 0.23012464
-0.59815496 0.047092333 0.39001834
-0.57695121 0.019449538 0.48443088
-0.51140022 0.019476429 0.54412234
-0.57740784 0.1147829 -0.58292919
-0.57604975 0.12276644 -0.42003468
-0.55643016 0.14730151 -0.36888978
-0.59101772 0.19233796 -0.23554495
-0.5569793 0.16330637 -0.18151838
-0.54156178 0.1904881 -0.027334556
-0.50202519 0.13546382 0.043887001
-0.53195935 0.11111192 0.17073216
-0.57419354 0.11623286 0.240872
-0.58662641 0.1594896 0.34495562
-0.57377887 0.10420541 0.46028432
-0.52026361 0.17112158 0.51675558
-0.57782537 0.28312144 -0.58825827
-0.56750369 0.22966759 -0.43442202
-0.56812221 0.242019 -0.35758334
-0.5218091 0.25078583 -0.28868076
-0.59144843 0.29935348 -0.17375179
-0.58184272 0.28010148 -0.023706861
-0.59707797 0.22659206 0.09288542
-0.5755862 0.27303308 0.11007385
-0.55113912 0.2344328 0.25785252
-0.57183731 0.22372836 0.39686406
-0.55411512 0.22137728 0.49630886
-0.53940719 0.25468057 0.52265513
-0.54788643 0.31899056 -0.57684058
-0.55984288 0.34888977 -0.45867094
-0.53759402 0.31701523 -0.33208644
-0.57009482 0.33955154 -0.23635314
-0.56325632 0.31515741 -0.1012018
-0.5230757 0.30377391 -0.011603139
-0.51148319 0.39592218 0.091328681
-0.59819341 0.37961841 0.15828463
-0.59012878 0.37668541 0.22618712
-0.56722021 0.3335357 0.31290662
-0.53202718 0.3291961 0.41365531
-0.51528907 0.37212276 0.52307642
-0.58932382 0.45019746 -0.53462428
-0.59984022 0.44941741 -0.49874613
-0.52209485 0.42865866 -0.32849631
-0.59013009 0.49037206 -0.2615245
-0.51090777 0.43553486 -0.1665837
-0.52800292 0.46987459 -0.093455493
-0.58021903 0.45138592 0.0030540943
-0.55760217 0.47440743 0.16898012
-0.54999775 0.42539433 0.24799222
-0.55984807 0.49047223 0.32644767
-0.53901333 0.49342507 0.46176663
-0.55274749 0.48594424 0.56109166
-0.51945108 0.54884022 -0.54232788
-0.54854804 0.51829225 -0.47549808
-0.57600683 0.53330052 -0.31134883
-0.5497638 0.5028674 -0.2403942
-0.55100989 0.53101563 -0.18320729
-0.50370026 0.59786808 -0.076759964
-0.52873057 0.57469046 0.050047167
-0.5677467 0.54710883 0.13182321
-0.59403813 0.59524721 0.26819721
-0.54652792 0.50424314 0.38718051
-0.59285545 0.59346032 0.45216498
-0.5332886 0.509673 0.52896893
-0.51818514 0.60655248 -0.51824528
-0.57681113 0.67224395 -0.42952764
-0.58501345 0.61951077 -0.33403948
-0.55777818 0.65185952 -0.20639449
-0.50270253 0.61422175 -0.13510086
-0.5356819 0.68003303 -0.052726787
-0.55462027 0.64369333 0.04323915
-0.57556808 0.68253136 0.15059194
-0.59165305 0.69069439 0.21331711
-0.59234965 0.6173389 0.3713904
-0.56090623 0.66172051 0.48313797
-0.58109158 0.68033642 0.53969818
-0.59395289 0.72776639 -0.56007421
-0.51419008 0.75268757 -0.40910634
-0.55832005 0.76172793 -0.33431402
-0.58191812 0.76279736 -0.24849764
-0.57080162 0.78246319 -0.15683489
-0.5640676 0.7015487 -0.018388294
-0.50159365 0.72933882 0.016716842
-0.58278823 0.7106216 0.14927897
-0.56275904 0.71953249 0.21981184
-0.51356924 0.74896878 0.32041973
-0.56605065 0.76162726 0.49516305
-0.51219493 0.7920332 0.53924692
-0.59473234 0.89465773 -0.52621418
-0.58333021 0.82691199 -0.40281227
-0.55771643 0.8563965 -0.34521294
-0.5401631 0.89427376 -0.28687781
-0.55822563 0.85667777 -0.10169476
-0.54456198 0.83014554 -0.068951003
-0.52989012 0.81206489 0.066633888
-0.52622092 0.85391265 0.12427237
-0.53018945 0.88228595 0.26665279
-0.58145243 0.81781328 0.33126771
-0.58719856 0.88817257 0.49990803
-0.53257871 0.81711215 0.57392979
-0.59673995 0.90625435 -0.54388005
-0.58684385 0.98818666 -0.49100471
-0.53308249 0.90083146 -0.38095668
-0.55434895 0.93689167 -0.23656967
-0.55392742 0.95297635 -0.1018362
-0.5502131 0.91564053 -0.066420212
-0.51444769 0.92528236 0.064476453
-0.5766325 0.93762726 0.11731631
-0.58090764 0.95959812 0.2428253
-0.52731067 0.94820225 0.3877573
-0.58793885 0.970716 0.45895076
-0.57652348 0.92261881 0.54779959
-0.5615381 1.0018212 -0.54170138
-0.52526689 1.0251806 -0.43452764
-0.57095593 1.0078067 -0.33829093
-0.55272311 1.0265281 -0.20035249
-0.51756239 1.0532098 -0.10173366
-0.51005638 1.0730249 -0.022709906
-0.56561232 1.020376 0.05840693
-0.50928915 1.0107769 0.13748126
-0.50936919 1.0848089 0.28796539
-0.56733012 1.081776 0.33267367
-0.57392722 1.0659211 0.45943564
-0.54132348 1.0022513 0.50489831
-0.55747408 -1.0230035 -0.56872815
-0.55082482 -1.0838516 -0.45118159
-0.5821234 -1.0570873 -0.35771143
-0.56052727 -1.0905771 -0.22235462
-0.54014766 -1.0025246 -0.15290758
-0.52514946 -1.030405 -0.036549799
-0.53001124 -1.092782 0.063853078
-0.53666365 -1.0966396 0.15289207
-0.59311938 -1.0703833 0.23195998
-0.56746721 -1.0469136 0.363112
-0.53455544 -1.0005494 0.44076192
-0.54839522 -1.0180019 0.57244539
-0.52816409 -0.97544253 -0.50313509
-0.56676608 -0.94686663 -0.4251391
-0.56748545 -0.93170339 -0.38943708
-0.53187287 -0.93890417 -0.29211578
-0.52211976 -0.95410639 -0.1576547
-0.53018534 -0.99091768 -0.093211517
-0.57335287 -0.99308598 0.015365672
-0.54729575 -0.97189951 0.12620488
-0.55599153 -0.95166248 0.25271428
-0.58691949 -0.95425761 0.3094441
-0.51246285 -0.98796183 0.4518052
-0.50301629 -0.90563774 0.57562816
-0.53622913 -0.87318242 -0.50423062
-0.52750939 -0.87592936 -0.45842376
-0.53238779 -0.85252821 -0.37109354
-0.5944559 -0.83281922 -0.23862559
-0.53048599 -0.85093808 -0.19320072
-0.50955254 -0.87452102 -0.0064785704
-0.57759601 -0.80817235 0.066783272
-0.56961751 -0.81556082 0.17901018
-0.56555378 -0.87737727 0.27805197
-0.55510485 -0.83246684 0.35101089
-0.59932852 -0.87693685 0.46021706
-0.52881193 -0.86132288 0.5984453
-0.50840086 -0.73447865 -0.59988493
-0.57273334 -0.75375509 -0.45309845
-0.55756509 -0.7996999 -0.35390836
-0.55535764 -0.72298402 -0.2029056
-0.56775284 -0.76953363 -0.12152607
-0.57848912 -0.7528643 -0.075241491
-0.59642375 -0.71935487 0.017587442
-0.55136287 -0.72782421 0.1407502
-0.55265141 -0.77843708 0.21527213
-0.54597479 -0.76588756 0.37230244
-0.5392611 -0.77163064 0.41917452
-0.54571378 -0.72615731 0.57559252
-0.57571507 -0.66680229 -0.50825757
-0.51982373 -0.67309386 -0.41429275
-0.52345002 -0.69851083 -0.38113379
-0.51150572 -0.67125016 -0.2406913
-0.59088868 -0.6913783 -0.14237906
-0.50751239 -0.63166368 -0.0086280406
-0.54534072 -0.60192436 0.042572882
-0.50999779 -0.63555574 0.19497147
-0.53523827 -0.60654783 0.26790169
-0.59916759 -0.63642132 0.37777942
-0.50548261 -0.69740409 0.42089349
-0.54121232 -0.62907183 0.56497812
-0.57637697 -0.56717634 -0.58806038
-0.5888921 -0.53926963 -0.48757273
-0.55498624 -0.50260848 -0.35412747
-0.54667705 -0.53380555 -0.23376998
-0.52297145 -0.52917427 -0.16497821
-0.59312618 -0.53379905 -0.079404444
-0.55838418 -0.55665708 0.084192917
-0.59888077 -0.51670831 0.10692625
-0.5743559 -0.56569386 0.26134607
-0.56877702 -0.54177511 0.39927426
-0.54592609 -0.57309359 0.48699412
-0.51429337 -0.57352209 0.53556108
-0.5681926 -0.42532319 -0.58807856
-0.51551437 -0.40601707 -0.47828615
-0.53544486 -0.40350479 -0.3520537
-0.52878076 -0.4360683 -0.20173322
-0.54552841 -0.4240101 -0.13526885
-0.58067399 -0.44561142 -0.064741045
-0.52789533 -0.48036996 0.052249532
-0.51679319 -0.40062955 0.19525948
-0.57813233 -0.42326301 0.21057983
-0.51380312 -0.48903024 0.34556639
-0.59364086 -0.46673161 0.440458
-0.51617402 -0.4551627 0.55543089
-0.56341839 -0.38791344 -0.52364957
-0.57878166 -0.33721036 -0.45087609
-0.522802 -0.35903454 -0.30671465
-0.52404886 -0.30272591 -0.26429358
-0.5807972 -0.32282141 -0.18611258
-0.50184596 -0.33037338 -0.015383825
-0.59061801 -0.31653786 0.05254044
-0.56328058 -0.34696558 0.1050626
-0.51388603 -0.30244386 0.24848534
-0.51574105 -0.36065438 0.38694605
-0.53285688 -0.39245015 0.4741258
-0.59676242 -0.34799474 0.5613932
-0.56522876 -0.22643198 -0.58500028
-0.5384472 -0.24139079 -0.43373698
-0.57378548 -0.20487356 -0.3955546
-0.57341129 -0.22450668 -0.20806143
-0.5757215 -0.28816035 -0.15575977
-0.56869346 -0.23122039 -0.01278846
-0.5640772 -0.27663565 0.073634006
-0.51919413 -0.26052925 0.15565318
-0.53165841 -0.20564076 0.27040476
-0.54962969 -0.25576946 0.3666417
-0.59804225 -0.28470343 0.4330858
-0.50267714 -0.25756907 0.56337672
-0.57297295 -0.18213503 -0.58029461
-0.59258574 -0.11782788 -0.45050251
-0.55700785 -0.12140201 -0.31122291
-0.55353206 -0.1608817 -0.21169683
-0.52308857 -0.13526312 -0.16032085
-0.50967592 -0.11914859 -0.099402636
-0.52449226 -0.13064381 0.037739556
-0.54149103 -0.17839812 0.11053613
-0.52095926 -0.10096801 0.2949304
-0.5770008 -0.16724345 0.33329079
-0.53287357 -0.13106172 0.44386449
-0.50385791 -0.11664994 0.5226599
-0.52311456 -0.0075758547 -0.58327466
-0.51237535 -0.013801947 -0.45682555
-0.5010128 -0.052911259 -0.34855765
-0.54378974 -0.011571899 -0.21623847
-0.54119742 -0.085169114 -0.18452477
-0.53607219 -0.080013722 -0.00044063479
-0.55930454 -0.036060587 0.074870579
-0.55604815 -0.017441615 0.10283884
-0.52100372 -0.091684908 0.23185243
-0.54696327 -0.046593588 0.37820017
-0.59100497 -0.026335478 0.41117057
-0.58098394 -0.086370744 0.52618271
-0.53213477 0.045224477 -0.55048233
-0.55399734 0.018971041 -0.43263629
-0.55049944 0.017695308 -0.38523918
-0.58121693 0.0054974151 -0.29035133
-0.51492876 0.032387462 -0.14394405
-0.58296734 0.092960887 -0.097526595
-0.53033328 0.083064303 0.058279097
-0.57551718 0.08153972 0.11420351
-0.51209861 0.015544198 0.29889119
-0.56969893 5.2237512e-05 0.30335724
-0.51345617 0.040928941 0.46125665
-0.52168763 0.098995022 0.54433721
-0.54723203 0.10174882 -0.55204767
-0.57142156 0.18013477 -0.40486032
-0.57721573 0.1171315 -0.35019058
-0.59058505 0.19008526 -0.27260885
-0.54253387 0.1201364 -0.11548218
-0.52468836 0.17386404 -0.019912057
-0.54140133 0.15860842 0.024673453
-0.55030054 0.16664162 0.15909733
-0.59165174 0.15687916 0.26259598
-0.58149022 0.16609445 0.39016569
-0.52702481 0.10244621 0.48907521
-0.57356238 0.19823033 0.57825154
-0.5230971 0.25997022 -0.54185534
-0.54437846 0.2928313 -0.49034673
-0.541991 0.29267871 -0.39830172
-0.56016088 0.21208596 -0.29600972
-0.51372892 0.25851169 -0.15157035
-0.55867851 0.28448558 -0.08704666
-0.57905948 0.26089391 0.055229135
-0.59445935 0.26298836 0.18482958
-0.59680092 0.2452064 0.26147136
-0.55149859 0.23624116 0.30674469
-0.59504676 0.22210059 0.448957
-0.53556353 0.21925104 0.59758317
-0.58769166 0.39493424 -0.57945061
-0.52635276 0.31465149 -0.45791465
-0.58109277 0.3685734 -0.39573476
-0.53137839 0.36351979 -0.27687338
-0.57181334 0.39947748 -0.14614034
-0.55644071 0.36951631 -0.025620736
-0.55008841 0.33380505 0.053580105
-0.56370842 0.34451833 0.19898832
-0.58760679 0.37250784 0.24903573
-0.51624936 0.38529983 0.33980355
-0.51260728 0.38516957 0.42702943
-0.58283973 0.32084614 0.59473944
-0.54350203 0.43508968 -0.53596884
-0.56151217 0.4417029 -0.46002701
-0.57940245 0.47183666 -0.30520672
-0.51640826 0.40820712 -0.20491257
-0.58942908 0.40639815 -0.18579589
-0.53354746 0.41664606 -0.082368851
-0.53790414 0.43709582 0.057370979
-0.58316004 0.40520778 0.11132027
-0.50687987 0.41525733 0.27286619
-0.56044835 0.47378418 0.33964753
-0.59365958 0.40279645 0.48604405
-0.55499679 0.49344051 0.50985438
-0.50156015 0.59160179 -0.51410615
-0.55336833 0.57855594 -0.42508712
-0.54866225 0.57293296 -0.38223976
-0.52636933 0.53985894 -0.23434518
-0.58660692 0.52158034 -0.19691105
-0.59485078 0.59391421 -0.094130144
-0.5698694 0.54214072 0.029553384
-0.51895899 0.53329366 0.13168192
-0.55329317 0.58840919 0.26481986
-0.55908918 0.50252283 0.32015672
-0.51577938 0.50254995 0.45590326
-0.59335595 0.58541 0.56763971
-0.56521207 0.60810757 -0.55539733
-0.56705886 0.60542399 -0.46304202
-0.58228928 0.67968571 -0.33371919
-0.58235151 0.63308293 -0.29072896
-0.51015139 0.6059615 -0.18818448
-0.57130933 0.69884181 -0.028401412
-0.54600179 0.64935422 0.070691742
-0.50948757 0.69994915 0.14045531
-0.57121509 0.60673767 0.24145226
-0.56249756 0.64648402 0.38485786
-0.52360427 0.63647079 0.4818204
-0.5857389 0.61002219 0.54216999
-0.58218831 0.78689629 -0.56403655
-0.50029588 0.70567048 -0.44663075
-0.54781145 0.73945665 -0.36641511
-0.56677336 0.71756691 -0.29569682
-0.57910538 0.78565156 -0.10948464
-0.5819307 0.76753914 -0.066668391
-0.55315322 0.74313641 0.091213249
-0.56725395 0.71040118 0.12525903
-0.5254454 0.71315652 0.27362674
-0.59094787 0.75618613 0.39521432
-0.58158064 0.72795445 0.45972115
-0.54218411 0.7299937 0.53530103
-0.58658773 0.83169627 -0.57873988
-0.52232599 0.88949418 -0.46298206
-0.59285474 0.81914866 -0.37575135
-0.59889758 0.80537546 -0.26077256
-0.5558278 0.89066738 -0.19867168
-0.50127167 0.88971919 -0.029107653
-0.58033419 0.86379528 0.0093370518
-0.53789455 0.8307367 0.19250947
-0.55439425 0.88807482 0.21016695
-0.59805477 0.89953899 0.37204051
-0.56679076 0.85910773 0.42973468
-0.59434891 0.80620456 0.56387782
-0.57017565 0.92964721 -0.59536487
-0.55354404 0.95054281 -0.40520668
-0.52385741 0.95519328 -0.33689302
-0.54965895 0.90898919 -0.28666636
-0.59191376 0.97131252 -0.12227595
-0.50748998 0.99051344 -0.0096451193
-0.54662281 0.96362925 0.010915421
-0.56580311 0.9825809 0.16636534
-0.56619024 0.96596104 0.22939731
-0.5729562 0.97463137 0.36422801
-0.59896636 0.94292539 0.40484473
-0.51977873 0.96679163 0.53321838
-0.53965318 1.0710506 -0.54738975
-0.53457224 1.072971 -0.47593448
-0.52927464 1.0919118 -0.32186231
-0.53961629 1.0287977 -0.26167548
-0.53074682 1.0780126 -0.14433302
-0.55049956 1.0396521 -0.011493936
-0.59384096 1.0397987 0.078017555
-0.57220626 1.0337584 0.12425264
-0.53921342 1.0001491 0.2741254
-0.56050128 1.0104814 0.32019976
-0.58721119 1.0772074 0.45495403
-0.53915435 1.0485229 0.57790571
-0.51095241 -1.0500607 -0.52010399
-0.56154889 -1.0265659 -0.41692692
-0.59486681 -1.0872043 -0.39271149
-0.57503349 -1.0911473 -0.24968475
-0.52016491 -1.0871788 -0.10569919
-0.50213134 -1.0316285 -0.027313069
-0.58679175 -1.0776601 0.072272457
-0.53174233 -1.0889647 0.1448708
-0.58825076 -1.0327941 0.26407179
-0.50906342 -1.0671186 0.38387623
-0.53461879 -1.078811 0.47491315
-0.504893 -1.0416814 0.58778918
-0.42599678 -1.029093 -0.57651734
-0.40292865 -1.0265043 -0.45770907
-0.40294015 -1.0162723 -0.31330699
-0.49066806 -1.0913765 -0.23265734
-0.46335635 -1.090163 -0.16308013
-0.43025085 -1.0314971 -0.078404866
-0.44020584 -1.022217 0.078936391
-0.49192634 -1.0632347 0.14053011
-0.47939721 -1.0792509 0.20866665
-0.49149674 -1.0228066 0.35191828
-0.47943255 -1.0021513 0.43882716
-0.48339099 -1.0448222 0.59184748
-0.37710467 -1.0695249 -0.53580594
-0.34191108 -1.0515519 -0.41561222
-0.38481545 -1.0611928 -0.32180682
-0.39939865 -1.0899394 -0.29900804
-0.37059337 -1.0801628 -0.17626271
-0.3606618 -1.0469128 -0.08034794
-0.39085013 -1.0164741 0.040531542
-0.3220261 -1.0895154 0.10772035
-0.38877162 -1.070858 0.2784428
-0.37245199 -1.070843 0.36217061
-0.33964667 -1.0078828 0.49644226
-0.37745818 -1.0567515 0.52847958
-0.23052478 -1.0915366 -0.52419007
-0.26722029 -1.0567358 -0.49479011
-0.23445021 -1.0389116 -0.3890245
-0.24554273 -1.006624 -0.26520962
-0.28125393 -1.0473033 -0.17338212
-0.20001388 -1.0202169 -0.014475062
-0.25123963 -1.0097036 0.076895826
-0.28711945 -1.0603993 0.16158181
-0.27270612 -1.0169659 0.20372346
-0.20121692 -1.0326705 0.36456186
-0.25704357 -1.0249667 0.44517392
-0.2242628 -1.0390143 0.56666446
-0.19405967 -1.0459973 -0.56841886
-0.12697452 -1.0227278 -0.42202583
-0.1303567 -1.0511353 -0.38746679
-0.14062414 -1.0869849 -0.20328268
-0.19076477 -1.0921623 -0.19921798
-0.19648309 -1.0576891 -0.062778868
-0.13444269 -1.0922086 0.072292253
-0.12158126 -1.0468791 0.14771199
-0.18911821 -1.0559348 0.26317665
-0.17182069 -1.08735 0.35168052
-0.18656968 -1.0632139 0.40985942
-0.18821086 -1.0857973 0.55986249
-0.083174869 -1.0983417 -0.58037513
-0.05322228 -1.0682521 -0.48934919
-0.068357103 -1.0661271 -0.37824368
-0.091310807 -1.0748959 -0.27948421
-0.010707758 -1.0482221 -0.12967768
-0.052322082 -1.0444262 -0.096480981
-0.081556633 -1.0146861 0.021203084
-0.0049386173 -1.0922654 0.18529356
-0.0086199567 -1.0019699 0.27067155
-0.013769254 -1.0442212 0.38213071
-0.0686571 -1.0081376 0.41662037
-0.040176827 -1.0377502 0.58267748
0.098793469 -1.0462394 -0.58295679
0.091313854 -1.0742208 -0.48322177
0.039679933 -1.0981112 -0.39260054
0.085650019 -1.0315905 -0.21586233
0.040238835 -1.0211813 -0.10171648
0.072951853 -1.0597817 -0.026545249
0.062067192 -1.0413537 0.01543698
0.056322992 -1.0618654 0.19242325
0.016113399 -1.0394763 0.27581125
0.010132215 -1.0128889 0.36190146
0.035077672 -1.026618 0.46855357
0.029096419 -1.0705851 0.5318625
0.15306292 -1.0426108 -0.51675767
0.16412637 -1.040251 -0.49445784
0.13353114 -1.0020086 -0.37007749
0.17925167 -1.0547408 -0.23608199
0.14226457 -1.0675673 -0.16403937
0.1972679 -1.0441681 -0.049476504
0.17425454 -1.0078557 0.042433482
0.15696117 -1.0570644 0.14463466
0.11248728 -1.0035534 0.20244341
0.11201967 -1.0709815 0.3984924
0.13175206 -1.077003 0.46536902
0.15969959 -1.0043064 0.55703479
0.29357308 -1.0235356 -0.55421138
0.24121827 -1.0759522 -0.49441153
0.27638981 -1.0493999 -0.32406726
0.21720412 -1.0259352 -0.2470974
0.27436885 -1.0465484 -0.18940796
0.2682685 -1.0318439 -0.052757226
0.24632606 -1.0669186 0.021216322
0.23745149 -1.0901481 0.11379259
0.28235745 -1.027061 0.21750098
0.23292994 -1.0836431 0.36605069
0.26659873 -1.0936257 0.48943895
0.29073858 -1.0483441 0.5104658
0.37027025 -1.0900749 -0.58464098
0.33925202 -1.0046543 -0.43343306
0.35408843 -1.0504402 -0.33202663
0.34623921 -1.0963438 -0.27887139
0.38092041 -1.0590497 -0.1251381
0.31077245 -1.0879813 -0.051067889
0.35250452 -1.0888177 0.032583363
0.33585989 -1.0453551 0.12906624
0.3398881 -1.0672196 0.24150935
0.32590288 -1.0819262 0.35452074
0.32553869 -1.0930369 0.40205359
0.30173415 -1.0076325 0.51349193
0.46537 -1.0103461 -0.50673866
0.47423226 -1.0836488 -0.43963367
0.49210972 -1.0047115 -0.32053423
0.49141628 -1.0422606 -0.27576485
0.44400355 -1.0097933 -0.17423862
0.44431335 -1.0248053 -0.043731775
0.42286694 -1.0648863 0.0064187096
0.40366781 -1.023267 0.15637833
0.46712023 -1.0652812 0.27152127
0.4771722 -1.0357939 0.36301896
0.44190484 -1.0107391 0.43907622
0.48619935 -1.018386 0.5337612
0.53174281 -1.0336218 -0.51854604
0.56843615 -1.0210927 -0.4599919
0.58522642 -1.0981609 -0.34943634
0.50040859 -1.0364339 -0.26097015
0.59508944 -1.0000058 -0.15560359
0.52000648 -1.0939982 -0.037195727
0.58667499 -1.0080518 0.063118875
0.58527827 -1.0644927 0.1827842
0.59970033 -1.0076389 0.22241716
0.527587 -1.0347549 0.36450097
0.56049907 -1.0581812 0.43872455
0.59920466 -1.0857813 0.54707456
-0.5974865 -1.0324664 -0.55788881
-0.50666702 -1.0815899 -0.44288969
-0.52742249 -1.0561658 -0.36296374
-0.56799543 -1.015844 -0.20845361
-0.52657706 -1.0017892 -0.14289741
-0.57202953 -1.0823145 -0.098022282
-0.50426161 -1.0663701 0.026532203
-0.51138526 -1.0075419 0.11112653
-0.57762295 -1.0687922 0.23735639
-0.54751754 -1.0912499 0.31193751
-0.53598833 -1.0239123 0.4180617
-0.56873471 -1.0954949 0.52889872
-0.42768264 -1.0674189 -0.56525624
-0.45883429 -1.0339383 -0.47366455
-0.46161315 -1.0513582 -0.33726537
-0.47732913 -1.0978351 -0.20686992
-0.408943 -1.0955453 -0.11994414
-0.40235251 -1.0254153 -0.021700434
-0.41868871 -1.0549476 0.038330633
-0.47860375 -1.0382721 0.1103098
-0.44245052 -1.045501 0.25300518
-0.44639128 -1.0724931 0.36679351
-0.47513711 -1.0919167 0.44516388
-0.43532228 -1.0772288 0.51457423
-0.31955504 -1.0596908 -0.50138956
-0.30815607 -1.0970008 -0.45765534
-0.34643358 -1.0357685 -0.39129227
-0.33843458 -1.0197909 -0.22003528
-0.30108553 -1.0557256 -0.19330537
-0.32997531 -1.0060601 -0.018093593
-0.39818224 -1.0734639 0.068383865
-0.39442948 -1.0216264 0.17074868
-0.34658626 -1.0199335 0.28853595
-0.30326948 -1.0100995 0.39920521
-0.33740625 -1.0957762 0.41378692
-0.30767372 -1.0782199 0.50628203
-0.28178591 -1.061851 -0.59581804
-0.28722811 -1.0893059 -0.45608395
-0.23835565 -1.0991398 -0.30603391
-0.21259966 -1.0645545 -0.21129858
-0.25893709 -1.0481504 -0.10156506
-0.26942223 -1.0054421 -0.060360454
-0.23233554 -1.059736 0.098830231
-0.27750507 -1.0233169 0.15512995
-0.26633009 -1.0714105 0.26623821
-0.26287687 -1.0755835 0.30494598
-0.27044928 -1.0185857 0.46801785
-0.23787016 -1.0472153 0.53108126
-0.15884066 -1.0770904 -0.53973621
-0.15691862 -1.024948 -0.42754832
-0.14164668 -1.0137932 -0.34482077
-0.13178885 -1.0416429 -0.24227855
-0.14881802 -1.0198032 -0.19174074
-0.18329103 -1.028043 -0.036250569
-0.10038439 -1.0008419 0.035453431
-0.10906228 -1.0028741 0.14738886
-0.16535513 -1.0389851 0.28865439
-0.11021856 -1.0545305 0.37124807
-0.15865727 -1.0574427 0.42177323
-0.14723425 -1.0874345 0.52285892
-0.069108538 -1.0105419 -0.52738959
-0.089121506 -1.0217128 -0.40500921
-0.030621238 -1.060192 -0.39901978
-0.097196892 -1.0156786 -0.25529334
-0.0077667981 -1.0794083 -0.12290458
-0.010913521 -1.095734 -0.0059590489
-0.062181387 -1.0924023 0.070433967
-0.086146921 -1.0270487 0.15139943
-0.077572294 -1.0132914 0.22690548
-0.019372955 -1.0326968 0.38400459
-0.052250784 -1.0083374 0.46237165
-0.017546549 -1.0763556 0.56561762
0.017712375 -1.0096406 -0.51703566
0.027855752 -1.0233078 -0.41757584
0.093447827 -1.0316702 -0.38921112
0.071683094 -1.0817772 -0.22191191
0.0099095283 -1.0337739 -0.15102363
0.075080715 -1.0806755 -0.079785898
0.089589156 -1.0431217 0.0099089649
0.06486091 -1.0955834 0.16978054
0.055729516 -1.0362478 0.27724952
0.08091303 -1.0688061 0.37893388
0.017898249 -1.0274622 0.43389556
0.0027107766 -1.0789855 0.59530985
0.15101525 -1.0863633 -0.50936359
0.12089147 -1.0371076 -0.48692745
0.11015339 -1.0128607 -0.36091453
0.18889332 -1.0945383 -0.29936305
0.15012829 -1.0304643 -0.15682788
0.18198012 -1.000244 -0.03455881
0.18116027 -1.0539871 0.048565168
0.1733118 -1.0105553 0.15669549
0.11375466 -1.0556228 0.2390005
0.15256806 -1.0072644 0.35659051
0.19174939 -1.0359097 0.47135741
0.15960348 -1.0381663 0.57672012
0.23432879 -1.0321894 -0.50639725
0.21342146 -1.0875226 -0.47491691
0.27305853 -1.0668645 -0.33535227
0.21834663 -1.0166848 -0.24047787
0.23982823 -1.0225699 -0.12501779
0.23443249 -1.0164779 -0.07046251
0.23224604 -1.009606 0.055226158
0.2476335 -1.0020871 0.15738881
0.25493085 -1.0727271 0.23304236
0.21589573 -1.0380528 0.36965883
0.23606366 -1.0806373 0.47565097
0.21391481 -1.05861 0.51066965
0.34923452 -1.0697531 -0.53052568
0.32944334 -1.0027266 -0.49959782
0.3327755 -1.0861845 -0.31621969
0.37439746 -1.0260928 -0.28274477
0.39541745 -1.0349103 -0.19680774
0.38038099 -1.0643132 -0.048091579
0.36626539 -1.0911481 0.028150156
0.36973682 -1.0769618 0.1865021
0.37111285 -1.0544645 0.26245731
0.38891745 -1.0409391 0.35320142
0.36604381 -1.0676582 0.40475547
0.31811258 -1.0651215 0.55591351
0.44513407 -1.0750451 -0.5759095
0.43773079 -1.0284956 -0.48976573
0.48561823 -1.0013083 -0.37184924
0.4253329 -1.0268949 -0.25819647
0.41377631 -1.0563322 -0.11632773
0.47322869 -1.0861398 -0.061615862
0.45882094 -1.0704746 0.036615681
0.4848811 -1.0193241 0.11267281
0.45037809 -1.052307 0.24895944
0.4785111 -1.0122951 0.39980412
0.43531418 -1.0205532 0.44494435
0.40272996 -1.003647 0.59593135
0.50422978 -1.0664507 -0.50270414
0.50470209 -1.0810794 -0.43940622
0.56671202 -1.0025942 -0.34135604
0.56914002 -1.0324888 -0.23255156
0.53610224 -1.0799189 -0.13797216
0.52088946 -1.0188849 -0.013665065
0.50192577 -1.0134462 0.0083873505
0.57211202 -1.0025198 0.10201681
0.565135 -1.0625349 0.22312379
0.53132612 -1.0596509 0.34983054
0.51220202 -1.0270817 0.42684388
0.5714941 -1.0742154 0.51260155
-0.5668335 -1.0199387 -0.58477664
-0.56692129 -0.96519923 -0.55863065
-0.58783418 -0.86708254 -0.5115847
-0.53845876 -0.79057217 -0.56860924
-0.50699592 -0.62161553 -0.56009799
-0.53295517 -0.5952599 -0.5462569
-0.56576264 -0.42783648 -0.52640337
-0.52702177 -0.32053179 -0.53605181
-0.5455094 -0.2363801 -0.53137767
-0.58979899 -0.11063673 -0.58852774
-0.59452087 -0.04439202 -0.5696339
-0.55330372 0.0046191555 -0.52563959
-0.58045232 0.10917214 -0.52798343
-0.52029353 0.27217534 -0.5454362
-0.51222008 0.39704683 -0.54175669
-0.57941955 0.40706843 -0.50992137
-0.50772554 0.57351166 -0.51996279
-0.52100283 0.6285947 -0.56025165
-0.54563367 0.79091024 -0.50152236
-0.58854151 0.87156785 -0.58508337
-0.51610303 0.92147076 -0.55667394
-0.58695078 1.0470625 -0.59306443
-0.44392866 -1.0910469 -0.57309085
-0.44032565 -0.92509818 -0.50430566
-0.44961122 -0.88791549 -0.53531903
-0.41444293 -0.76922542 -0.51777697
-0.48612753 -0.65279645 -0.55244273
-0.43273968 -0.56375408 -0.58359939
-0.42118865 -0.42340565 -0.52197039
-0.47584087 -0.33314878 -0.54626399
-0.4866496 -0.22770278 -0.59784442
-0.47945225 -0.14401594 -0.54158753
-0.4699181 -0.085552223 -0.50605905
-0.45427743 0.098090366 -0.55828518
-0.47133797 0.13958639 -0.51991796
-0.45490569 0.28961116 -0.53757066
-0.44024736 0.35601068 -0.51159835
-0.42171726 0.49437314 -0.56987625
-0.44508418 0.58063251 -0.5271613
-0.42978108 0.65767586 -0.56563509
-0.49741426 0.70206046 -0.55534691
-0.46129948 0.86463022 -0.56824422
-0.4478797 0.91345841 -0.56276876
-0.45645392 1.0937135 -0.52535975
-0.31704673 -1.0990629 -0.51509148
-0.30027235 -0.96274662 -0.57184768
-0.34068155 -0.80295295 -0.51274472
-0.32124317 -0.70664984 -0.50218308
-0.33315358 -0.68460476 -0.5793224
-0.36120626 -0.53461492 -0.50819045
-0.39279485 -0.44962889 -0.5593273
-0.35402566 -0.33330685 -0.58813334
-0.30662745 -0.24004439 -0.51890498
-0.31514534 -0.15154517 -0.58479816
-0.32432508 -0.035921223 -0.55829525
-0.32904607 0.097178601 -0.59187531
-0.30120254 0.17206812 -0.51358527
-0.39966181 0.23888838 -0.51409727
-0.35452583 0.39859763 -0.57533127
-0.380633 0.47844231 -0.56635624
-0.31171626 0.56143177 -0.50862885
-0.30897909 0.65582848 -0.59747648
-0.34011319 0.71222663 -0.58511233
-0.38442028 0.88997138 -0.52546501
-0.35496065 0.91009122 -0.57943279
-0.3884702 1.0899651 -0.50609219
-0.22374144 -1.0499671 -0.51175135
-0.28296226 -0.97150499 -0.51436037
-0.2326774 -0.86678195 -0.53357202
-0.24729522 -0.78771853 -0.55544722
-0.25926816 -0.66847718 -0.57247132
-0.28463617 -0.52833301 -0.56850654
-0.27166158 -0.41470793 -0.51038015
-0.25974637 -0.3173421 -0.50609171
-0.26099735 -0.25903425 -0.5502097
-0.22308333 -0.13051948 -0.56368959
-0.21656311 -0.035873689 -0.53903705
-0.21303782 0.057473715 -0.50726825
-0.26739579 0.14134447 -0.55435753
-0.20703717 0.27137956 -0.5562014
-0.2115595 0.38086814 -0.52791446
-0.26470357 0.40186128 -0.56644487
-0.23252235 0.53258252 -0.55614913
-0.2903024 0.64378202 -0.52797502
-0.28829634 0.70063955 -0.51853186
-0.25896147 0.83248556 -0.50985694
-0.27537721 0.90622985 -0.56572866
-0.21052718 1.0375692 -0.55404556
-0.14534461 -1.0662624 -0.54380798
-0.1577011 -0.96041781 -0.578219
-0.16018692 -0.8902663 -0.54846328
-0.17517447 -0.73424697 -0.55492789
-0.10490848 -0.65682077 -0.52776515
-0.15827878 -0.55999202 -0.55586487
-0.11681287 -0.48468357 -0.58656621
-0.19898853 -0.39395332 -0.52507424
-0.1915753 -0.20476294 -0.58361018
-0.10907658 -0.16757801 -0.59257919
-0.16982733 -0.048683006 -0.59883195
-0.19096977 0.053990509 -0.59678769
-0.19046274 0.11177486 -0.58534855
-0.18500775 0.26311412 -0.51472753
-0.11406796 0.32459968 -0.50257784
-0.10866861 0.45708385 -0.52095908
-0.10031498 0.59565622 -0.54464585
-0.16518846 0.65154588 -0.53129411
-0.16693179 0.75875598 -0.5569998
-0.15837243 0.84918064 -0.50251138
-0.19289629 0.9006542 -0.51122606
-0.14346966 1.0064634 -0.52566713
-0.056381505 -1.0253944 -0.51733708
-0.07238514 -0.96054655 -0.50650448
-0.038652509 -0.8192451 -0.51813591
-0.048901599 -0.71137649 -0.55830258
-0.0068888366 -0.68442827 -0.58092153
-0.00069358945 -0.5741418 -0.57134479
-0.010213427 -0.47315711 -0.54066384
-0.021712326 -0.34961599 -0.5939182
-0.038719039 -0.22898771 -0.51805776
-0.0374972 -0.14681108 -0.51228523
-0.079792492 -0.065588892 -0.55461067
-0.028231435 0.042791095 -0.55553466
-0.0033947229 0.11810754 -0.5379945
-0.039928813 0.269539 -0.55795366
-0.027983539 0.30110547 -0.56531048
-0.07054688 0.45169905 -0.53593284
-0.044330537 0.56984603 -0.58435053
-0.024765074 0.65620559 -0.55560344
-0.030519672 0.78710639 -0.55735445
-0.090394907 0.88362706 -0.5143221
-0.026861295 0.93088406 -0.56399691
-0.052177534 1.0454212 -0.54203457
0.03863899 -1.0688808 -0.52244455
0.0022719682 -0.92657292 -0.54587853
0.043027785 -0.82254112 -0.53062475
0.029440543 -0.70547867 -0.52772921
0.078423262 -0.64417988 -0.52944285
0.073909037 -0.58906662 -0.57784349
0.038993068 -0.41189098 -0.54090953
0.03794568 -0.35406199 -0.56734288
0.0050339983 -0.23523475 -0.57713127
0.094900317 -0.1165811 -0.55024898
0.0015644695 -0.089101397 -0.5136289
0.095671289 0.0078069046 -0.50748754
0.066904262 0.13759817 -0.54997885
0.04648808 0.22179939 -0.56136656
0.05716157 0.3952809 -0.58778113
0.022319052 0.46711662 -0.50979441
0.059958555 0.50106788 -0.59440243
0.066675968 0.60563433 -0.5062449
0.015250064 0.70170242 -0.5980379
0.00022130055 0.8435176 -0.59753954
0.083222143 0.96052682 -0.538261
0.010209765 1.0520129 -0.56110239
0.18638682 -1.0826453 -0.59023023
0.16059588 -0.90919483 -0.53828776
0.11080167 -0.87268937 -0.54830033
0.12551376 -0.78568441 -0.59664249
0.15593706 -0.66620094 -0.59954208
0.17213042 -0.52333182 -0.5046525
0.18487093 -0.4892132 -0.50831789
0.18755308 -0.30130318 -0.55504578
0.15051331 -0.27389693 -0.57285786
0.17593881 -0.18992496 -0.51950949
0.15078488 -0.075860322 -0.54143912
0.13477725 0.076288715 -0.52663422
0.10829627 0.12724784 -0.53384042
0.18890113 0.2516979 -0.52224535
0.11710481 0.32911697 -0.50614423
0.11471522 0.45904833 -0.55417025
0.14406347 0.57297254 -0.50580812
0.17865708 0.66559136 -0.52812862
0.14519458 0.72762775 -0.51603025
0.10164541 0.85326236 -0.56184912
0.15538871 0.95390916 -0.53199345
0.13389044 1.036719 -0.51637679
0.22392906 -1.050496 -0.54210764
0.28436849 -0.9133113 -0.50892442
0.24067768 -0.84407121 -0.5887385
0.23667815 -0.75561541 -0.52122486
0.23001845 -0.66880298 -0.5598613
0.25680494 -0.51666367 -0.59153366
0.24036288 -0.49268484 -0.56098241
0.29361588 -0.36395511 -0.54705638
0.21402554 -0.23390315 -0.57398701
0.26379707 -0.1913185 -0.54056972
0.24293974 -0.00070931017 -0.57427174
0.28253236 0.029755538 -0.53850698
0.24248585 0.17406836 -0.58807927
0.25206318 0.2495067 -0.52795535
0.27064073 0.31228706 -0.5756427
0.26825345 0.47850701 -0.52820438
0.20740896 0.5674755 -0.56061167
0.26663375 0.60033941 -0.5527178
0.2220677 0.70573521 -0.59986997
0.23761021 0.81891799 -0.53752995
0.2142484 0.91142988 -0.57319242
0.25336695 1.0174892 -0.53454036
0.31386492 -1.0043305 -0.54011142
0.39554682 -0.90989423 -0.51028264
0.39393798 -0.80938458 -0.57788157
0.31450593 -0.75173289 -0.56236583
0.33760113 -0.63178349 -0.54762203
0.35333151 -0.57351273 -0.52844411
0.30683574 -0.41760102 -0.55636728
0.30042595 -0.3826147 -0.53189707
0.30261073 -0.22587985 -0.50453216
0.39180392 -0.15694034 -0.54197621
0.39615586 -0.097910441 -0.52375853
0.38371742 0.00073486642 -0.5402934
0.36800388 0.12747687 -0.52940494
0.33151716 0.2645129 -0.59941608
0.35523099 0.34818608 -0.57818913
0.3168478 0.47723663 -0.56248951
0.32280284 0.55133015 -0.56291354
0.3975969 0.68909287 -0.58322126
0.3856377 0.7866953 -0.55975664
0.37269354 0.83180195 -0.55890232
0.36086357 0.96801299 -0.50898045
0.33633783 1.0909098 -0.57044482
0.45915943 -1.053894 -0.5667429
0.46903402 -0.91469365 -0.58480102
0.4442398 -0.89240283 -0.50956446
0.45907658 -0.79668206 -0.55167156
0.45324266 -0.61918008 -0.52835029
0.49658468 -0.58206981 -0.58960289
0.4336533 -0.43017888 -0.58122873
0.44739532 -0.3678073 -0.58917487
0.44038567 -0.27811298 -0.54514337
0.44241685 -0.19512615 -0.58108473
0.45527321 -0.089212894 -0.57251889
0.43857777 0.024150176 -0.59164047
0.42431453 0.15540996 -0.58458406
0.40173391 0.29564166 -0.5003475
0.49356616 0.3999193 -0.51812857
0.46428892 0.47282618 -0.53961378
0.41758117 0.5724895 -0.56396294
0.47757784 0.61887902 -0.5802862
0.40011984 0.71011132 -0.56835806
0.42280468 0.86996174 -0.56155807
0.46252552 0.97038615 -0.54569381
0.43373895 1.0439037 -0.50538331
0.52874273 -1.0193245 -0.54983413
0.55380505 -0.92384541 -0.51923537
0.57624084 -0.88826662 -0.5423944
0.52998596 -0.72523373 -0.56216961
0.5645535 -0.62615848 -0.58767807
0.57947695 -0.54956025 -0.5210287
0.53472614 -0.45842049 -0.59078526
0.58950013 -0.38521507 -0.53146666
0.51981699 -0.29644284 -0.53277296
0.58735567 -0.15684888 -0.54243159
0.56944042 -0.092782192 -0.57432157
0.56675917 0.00097586465 -0.51840663
0.55322832 0.1450655 -0.57206082
0.5797708 0.29462302 -0.56294644
0.59064436 0.37918711 -0.56073153
0.56078887 0.40248552 -0.59844327
0.56714368 0.53315538 -0.51628292
0.56286252 0.69714993 -0.57930404
0.50569332 0.75316036 -0.55496764
0.50093818 0.85824704 -0.54734814
0.56866378 0.94205797 -0.52805674
0.5502221 1.0650041 -0.51691628
-0.52730858 -1.0526364 -0.56261528
-0.56728548 -0.94184184 -0.51456624
-0.58838814 -0.80360103 -0.59423459
-0.56284487 -0.70202345 -0.56645322
-0.57151765 -0.65002751 -0.54050261
-0.53953832 -0.50378388 -0.54475313
-0.58142221 -0.45735151 -0.58069605
-0.54860258 -0.36583561 -0.54899347
-0.50671023 -0.29673165 -0.56093323
-0.58318293 -0.17267834 -0.52006054
-0.58480531 -0.016672201 -0.56028914
-0.53582644 0.037472248 -0.58552492
-0.58688855 0.10866978 -0.55649596
-0.52565598 0.20915133 -0.56146395
-0.53853732 0.38720492 -0.59890211
-0.51772249 0.45732605 -0.58059812
-0.52102703 0.52779806 -0.57646334
-0.5460999 0.64480197 -0.59596443
-0.54306418 0.77787113 -0.59385985
-0.59197998 0.84962893 -0.53377628
-0.53576851 0.94458258 -0.57787347
-0.54180789 1.0837057 -0.56729555
-0.40289247 -1.0718712 -0.51536274
-0.49730232 -0.94940007 -0.56611347
-0.47211245 -0.8077476 -0.52533829
-0.48005468 -0.77630699 -0.51502031
-0.40426546 -0.63895613 -0.537974
-0.41884434 -0.5399738 -0.56255609
-0.48273954 -0.49462777 -0.59096533
-0.40742055 -0.37447378 -0.5116902
-0.41414297 -0.29666361 -0.50889331
-0.40372935 -0.13003662 -0.53308773
-0.42748177 -0.092307158 -0.57701141
-0.4796918 0.057605345 -0.5886001
-0.41893721 0.1507111 -0.55961567
-0.46276236 0.29884392 -0.52904654
-0.49100012 0.34702325 -0.5679059
-0.47760436 0.45114088 -0.51527989
-0.49393937 0.58231246 -0.52743119
-0.46646392 0.65565556 -0.59226704
-0.44706401 0.74053359 -0.51700175
-0.46925902 0.88587594 -0.55474079
-0.4210971 0.94134849 -0.56821668
-0.46455637 1.0452207 -0.59712678
-0.32477722 -1.0921845 -0.58901387
-0.34599385 -0.98902577 -0.56219876
-0.37301165 -0.88332796 -0.54753625
-0.34769559 -0.70273489 -0.5311327
-0.32895914 -0.63104969 -0.56881404
-0.37080935 -0.57085431 -0.55177164
-0.31496426 -0.4189449 -0.50883526
-0.30126134 -0.33607239 -0.59480137
-0.37446299 -0.28112137 -0.59113342
-0.33996555 -0.11617444 -0.55574489
-0.34152815 -0.040318012 -0.50518912
-0.36381927 0.006102893 -0.57815087
-0.34153587 0.14312817 -0.57148921
-0.35084677 0.28277323 -0.52872723
-0.38090137 0.31492117 -0.55574703
-0.39012033 0.43934116 -0.54462862
-0.31734261 0.54910398 -0.53231287
-0.36898199 0.62076032 -0.53996134
-0.36818954 0.76099503 -0.5866189
-0.35640597 0.86714631 -0.55379438
-0.3429009 0.9856841 -0.58302331
-0.31086987 1.0147656 -0.50646198
-0.25239202 -1.0867262 -0.50918978
-0.28651276 -0.9447825 -0.54558617
-0.29670602 -0.84345484 -0.59461373
-0.23903885 -0.71949369 -0.55664796
-0.25486252 -0.65253729 -0.56173539
-0.24406961 -0.52103561 -0.51612645
-0.26357132 -0.40355051 -0.54676503
-0.22234985 -0.32883435 -0.58072305
-0.21285236 -0.27492464 -0.56713104
-0.21041512 -0.13498819 -0.56992644
-0.20251638 -0.0042798147 -0.59240329
-0.2364946 0.058701914 -0.5101698
-0.25861135 0.13810174 -0.56908637
-0.21976586 0.2263834 -0.53772157
-0.22412337 0.31821108 -0.50047839
-0.21434739 0.41865715 -0.56576669
-0.22188547 0.51806861 -0.5804202
-0.28396049 0.69923592 -0.52593774
-0.21977384 0.71554762 -0.55757737
-0.28398633 0.87288642 -0.56088531
-0.25016466 0.9586972 -0.51910096
-0.23624313 1.0356508 -0.59364712
-0.19267567 -1.0631862 -0.54090089
-0.16055961 -0.90898126 -0.53064203
-0.18062341 -0.82839245 -0.55676323
-0.13598755 -0.72508401 -0.52553964
-0.19608155 -0.62293154 -0.50536752
-0.1918685 -0.52363265 -0.55636418
-0.14411795 -0.43508977 -0.58161575
-0.16849735 -0.35020512 -0.53878647
-0.14821544 -0.20817894 -0.50057572
-0.10314757 -0.11451484 -0.53185934
-0.10375961 -0.079361029 -0.53210592
-0.13290751 0.040350139 -0.5349834
-0.10650209 0.16743344 -0.55205154
-0.1674096 0.22317916 -0.55131185
-0.16037098 0.37835374 -0.52949226
-0.12263849 0.45585591 -0.54274094
-0.12433693 0.56090897 -0.50045192
-0.10536783 0.69624311 -0.55500615
-0.14649329 0.71950179 -0.503613
-0.10681318 0.8115626 -0.51982892
-0.19485517 0.90268362 -0.56956512
-0.19974636 1.0580192 -0.53514302
-0.046903558 -1.0558392 -0.50987917
-0.034888163 -0.94594496 -0.50642157
-0.056801941 -0.88707644 -0.54573333
-0.088568971 -0.72875851 -0.53733695
-0.098332532 -0.69141096 -0.51990789
-0.090243965 -0.58574909 -0.51899153
-0.052152555 -0.43409801 -0.5743165
-0.029193424 -0.36309084 -0.5102244
-0.033823505 -0.28579774 -0.58303916
-0.040938612 -0.1721216 -0.51739693
-0.080177821 -0.010026969 -0.58049285
-0.00051101297 0.032683965 -0.59781474
-0.011966214 0.14924774 -0.55288982
-0.0021023601 0.24039695 -0.56856298
-0.082076855 0.35516405 -0.50310749
-0.04147017 0.44074559 -0.56115687
-0.015551262 0.56806439 -0.53846753
-0.048171807 0.6376611 -0.57668155
-0.01228182 0.74390906 -0.52151477
-0.03947873 0.84649545 -0.54696548
-0.018602304 0.97623283 -0.51015556
-0.017276391 1.0429239 -0.59730983
0.033432942 -1.0894747 -0.5403353
0.077641964 -0.90980095 -0.59785229
0.070206642 -0.82619172 -0.56225449
0.022195959 -0.72650439 -0.55086464
0.09541028 -0.67213643 -0.54571867
0.076936565 -0.54598945 -0.53011769
0.031110963 -0.40134519 -0.59287655
0.039877024 -0.38180196 -0.51561952
0.0092988927 -0.25062597 -0.55365109
0.07870774 -0.19906676 -0.54391003
0.091502592 -0.0065693706 -0.53572583
0.091721393 0.00014190532 -0.52321738
0.0030385272 0.12389288 -0.579153
0.072769269 0.24549663 -0.57009
0.012726604 0.38444719 -0.59913528
0.0019450441 0.47270796 -0.58586985
0.035411648 0.55215043 -0.52195543
0.071181893 0.64366567 -0.56436014
0.043655481 0.70375401 -0.59507871
0.025510183 0.80496323 -0.5941748
0.0091100177 0.95643419 -0.54059631
0.070829451 1.0241084 -0.58581877
0.18413691 -1.0723898 -0.51427871
0.16088411 -0.90363884 -0.57152301
0.14888999 -0.84818381 -0.57796901
0.11537734 -0.77737916 -0.51723146
0.15367877 -0.64601803 -0.52378905
0.1657061 -0.5652433 -0.57393336
0.14612317 -0.41730303 -0.53606761
0.181881 -0.3082664 -0.57823372
0.11615726 -0.22253278 -0.52843648
0.10237201 -0.14222611 -0.56601816
0.1433299 -0.073426828 -0.5115757
0.12851433 0.039305177 -0.54068989
0.11789752 0.13541475 -0.53666663
0.12166723 0.26240006 -0.53294563
0.13279416 0.30624413 -0.51970345
0.13707167 0.49994779 -0.56275856
0.19809783 0.5977931 -0.58729631
0.17534611 0.62322402 -0.52586198
0.10236325 0.7981903 -0.53925675
0.18812463 0.81108093 -0.56556165
0.14074595 0.93994367 -0.51159233
0.13676637 1.0548133 -0.59647632
0.23690031 -1.0418757 -0.5791654
0.24511346 -0.95590568 -0.52480298
0.29561961 -0.89326119 -0.58759743
0.27456179 -0.75292367 -0.57138318
0.28568965 -0.67535305 -0.59566098
0.25105652 -0.53083748 -0.53834105
0.29789856 -0.49178568 -0.57167321
0.27509493 -0.38662195 -0.52400446
0.26852798 -0.27135721 -0.50905454
0.21919331 -0.13891309 -0.50788492
0.28999829 -0.082369491 -0.58065665
0.27037805 0.075442456 -0.57252961
0.23462608 0.16863978 -0.55813748
0.29907691 0.21557198 -0.51652211
0.28190008 0.36053342 -0.53750765
0.20812722 0.47385603 -0.52206969
0.28051126 0.58918679 -0.59327775
0.2368252 0.69507903 -0.5914222
0.24975771 0.79244256 -0.52448541
0.26374087 0.87424052 -0.51580614
0.28311297 0.93254155 -0.58434981
0.22986163 1.0457308 -0.55330032
0.36181006 -1.073854 -0.5067817
0.39938325 -0.91649121 -0.53436953
0.38954234 -0.80387592 -0.54174817
0.38988549 -0.74172533 -0.56508648
0.38549259 -0.68631858 -0.59651345
0.30455628 -0.51145798 -0.54584867
0.34077311 -0.48642036 -0.59636182
0.34667349 -0.32538521 -0.53738689
0.31548288 -0.21607538 -0.5856092
0.39150181 -0.13940409 -0.56018561
0.3254481 -0.029190302 -0.56758457
0.39175278 0.040179092 -0.58755416
0.34063733 0.19182731 -0.56138092
0.3191379 0.26098019 -0.56742138
0.31668907 0.36205417 -0.58119082
0.37190759 0.4094629 -0.50838923
0.33231863 0.5250805 -0.52304029
0.33227095 0.62341183 -0.5626055
0.37403655 0.72226214 -0.53071815
0.34210587 0.88240784 -0.55076653
0.38279778 0.94805104 -0.57066321
0.35706604 1.030937 -0.51689374
0.45230299 -1.0776818 -0.56747013
0.46932909 -0.91681576 -0.51887441
0.48102948 -0.81761265 -0.5443002
0.41287655 -0.77370358 -0.58470231
0.46805662 -0.65731084 -0.57663471
0.43213305 -0.55435747 -0.55600566
0.43845668 -0.41546476 -0.54613984
0.43995798 -0.30082965 -0.57233405
0.47552204 -0.25475544 -0.5019545
0.42971271 -0.17652173 -0.53963923
0.45285591 -0.0020710453 -0.59485644
0.42470366 0.07568755 -0.59055144
0.46019799 0.153147 -0.51428312
0.46510756 0.29882771 -0.57344365
0.49294844 0.3100245 -0.55904853
0.49482292 0.40003416 -0.57168835
0.45408782 0.56057066 -0.57922697
0.4120338 0.62192839 -0.50064665
0.43258062 0.73523581 -0.59040511
0.46999955 0.87475342 -0.53179646
0.47485089 0.96489763 -0.54567009
0.45323715 1.0338132 -0.57127649
0.58323336 -1.0999372 -0.54474282
0.52906555 -0.90424573 -0.53793192
0.58928335 -0.83984393 -0.56434965
0.55145687 -0.74535978 -0.53477299
0.53466821 -0.60074997 -0.53771973
0.5554328 -0.52033752 -0.56691921
0.57458752 -0.43429902 -0.58744639
0.57541263 -0.31776062 -0.58919877
0.50251508 -0.28402057 -0.55855715
0.58152062 -0.12685925 -0.54064399
0.5781374 -0.096468888 -0.5632714
0.50553334 0.074486785 -0.56750125
0.58922672 0.17733276 -0.57573968
0.53115636 0.21295971 -0.53474146
0.52250677 0.37849805 -0.56499863
0.59766591 0.42870846 -0.54797614
0.59274882 0.50708705 -0.59486866
0.58550948 0.65926665 -0.5655067
0.51628989 0.72809225 -0.51615942
0.55476058 0.81675613 -0.56454766
0.55022007 0.96004611 -0.50006706
0.51982558 1.0355407 -0.56418729
