# .PCD v0.7 - Point Cloud Data file format
VERSION 0.7
FIELDS x y z
SIZE 4 4 4
TYPE F F F
COUNT 1 1 1
WIDTH 1355
HEIGHT 1
VIEWPOINT 0 0 0 1 0 0 0
POINTS 1355
DATA ascii
-0.42783019 -0.74232221 -0.50364661
-0.42111436 -0.73014939 -0.50781077
-0.42420805 -0.72767144 -0.50675875
-0.42975014 -0.71687257 -0.5046792
-0.4243021 -0.70018059 -0.50530231
-0.42752063 -0.69015259 -0.50248361
-0.42087787 -0.68702257 -0.50803828
-0.42252225 -0.67369443 -0.50466573
-0.42738092 -0.66283309 -0.50671154
-0.42750663 -0.6562531 -0.50643909
-0.42579675 -0.64173269 -0.50360346
-0.42136061 -0.63931555 -0.5025143
-0.42221048 -0.62096083 -0.50032908
-0.42545146 -0.61606461 -0.50094604
-0.42981538 -0.60015339 -0.50069273
-0.42984754 -0.5940975 -0.50055397
-0.42108119 -0.589396 -0.5011825
-0.42063096 -0.57185203 -0.50941068
-0.42664108 -0.56111413 -0.50792468
-0.4254632 -0.5565446 -0.50630867
-0.42243177 -0.54116386 -0.50580764
-0.42783886 -0.53325677 -0.5038355
-0.42201445 -0.52134681 -0.50823683
-0.42280868 -0.51551068 -0.50431991
-0.42279625 -0.50511217 -0.50186557
-0.42858845 -0.4918845 -0.50721431
-0.42225745 -0.48601949 -0.5020864
-0.42824087 -0.47799283 -0.50772351
-0.42221656 -0.46103474 -0.50325644
-0.42468154 -0.4582471 -0.5039745
-0.42535013 -0.44134256 -0.5026179
-0.42462444 -0.43212304 -0.50802779
-0.42427003 -0.42712319 -0.50835705
-0.42248657 -0.41083011 -0.50472397
-0.42936563 -0.40345538 -0.50502533
-0.42915687 -0.39371461 -0.50039524
-0.42222038 -0.38569027 -0.50679386
-0.42902142 -0.37308541 -0.50621235
-0.42739651 -0.3618221 -0.50063986
-0.42148802 -0.35729164 -0.50443488
-0.42747188 -0.3435432 -0.50965357
-0.42688072 -0.33895153 -0.50370115
-0.42293751 -0.32789147 -0.50996351
-0.42338377 -0.31286353 -0.50723565
-0.42759693 -0.30902889 -0.50962043
-0.42908204 -0.29078215 -0.5093742
-0.42954096 -0.28740832 -0.50648803
-0.42627066 -0.2726998 -0.50350755
-0.42214772 -0.26362467 -0.5070067
-0.42508328 -0.25231797 -0.50633109
-0.42958438 -0.24097003 -0.50901043
-0.42405361 -0.23100977 -0.50444233
-0.42422858 -0.22818016 -0.50988102
-0.42444623 -0.21205632 -0.50752246
-0.42711663 -0.20443989 -0.50535816
-0.4290351 -0.19691327 -0.50440115
-0.42758507 -0.18486388 -0.50372756
-0.42694232 -0.17095062 -0.50778639
-0.4200398 -0.16448152 -0.5027318
-0.4261663 -0.15916434 -0.50032473
-0.42047998 -0.14350432 -0.5010007
-0.42839906 -0.13650467 -0.50672072
-0.42499205 -0.12829025 -0.5018636
-0.4271903 -0.1122985 -0.50554317
-0.42654487 -0.10715442 -0.50789481
-0.42902127 -0.097902626 -0.5059765
-0.42496291 -0.08372888 -0.50928378
-0.42797464 -0.078906953 -0.50427634
-0.42201495 -0.067570075 -0.50628102
-0.42576733 -0.053985752 -0.50232464
-0.42743105 -0.047697779 -0.50128949
-0.42539638 -0.037100822 -0.50925612
-0.42774412 -0.021757755 -0.5000962
-0.42250493 -0.016479781 -0.50449497
-0.42853612 -0.0055111381 -0.50972718
-0.42397434 0.00014551841 -0.50014192
-0.42107093 0.011177348 -0.50196034
-0.42189625 0.022466563 -0.50678861
-0.42816004 0.039819229 -0.50744897
-0.42477316 0.040228423 -0.50105208
-0.42772463 0.058603704 -0.50004947
-0.42032167 0.066713229 -0.50155592
-0.42371163 0.073554657 -0.50288945
-0.42925668 0.083643816 -0.50536686
-0.42845136 0.098309085 -0.50022638
-0.42739084 0.10063137 -0.50847822
-0.42870462 0.11348586 -0.50272709
-0.42060974 0.12475359 -0.50083232
-0.42022008 0.13338138 -0.50295264
-0.42831862 0.1439918 -0.50506747
-0.42389566 0.15587023 -0.50019455
-0.42094225 0.16677926 -0.50697511
-0.42879325 0.17147896 -0.50931442
-0.42685437 0.18440221 -0.50342298
-0.42689207 0.19445489 -0.50993186
-0.42157114 0.20196222 -0.50436133
-0.42234319 0.21324113 -0.50012624
-0.42400196 0.22740762 -0.50281525
-0.42607147 0.23081014 -0.50603455
-0.42783487 0.24176779 -0.50857145
-0.42284152 0.2521601 -0.50458878
-0.42695132 0.26091659 -0.50566113
-0.42656335 0.27231854 -0.5058549
-0.42775401 0.28425032 -0.50069582
-0.42440888 0.29865789 -0.50481629
-0.42919564 0.30448109 -0.50086576
-0.42293569 0.31703594 -0.50593954
-0.42490035 0.32376382 -0.50568908
-0.42148975 0.33747903 -0.50821418
-0.42680782 0.34457541 -0.50525171
-0.42582718 0.35051635 -0.50013554
-0.42136142 0.36902687 -0.5042057
-0.42179742 0.37607878 -0.50242138
-0.42445576 0.38499767 -0.50565588
-0.42783979 0.39924002 -0.50306547
-0.42065001 0.4037759 -0.50895101
-0.42577645 0.41472191 -0.50553763
-0.42080787 0.42941368 -0.50274146
-0.42170593 0.43500465 -0.50241214
-0.42151698 0.44080088 -0.50989354
-0.42422372 0.45250431 -0.50221783
-0.42025381 0.46157536 -0.50899684
-0.42000246 0.47941399 -0.50924146
-0.42639697 0.48790786 -0.50155288
-0.42365763 0.49285439 -0.50510979
-0.42927876 0.50989616 -0.50413585
-0.42729154 0.51925492 -0.50661117
-0.42708862 0.5249784 -0.50599772
-0.42163843 0.53060907 -0.50873703
-0.42021456 0.54119599 -0.50326419
-0.42541081 0.55103081 -0.50449759
-0.42799053 0.56753373 -0.50748235
-0.42561692 0.5706569 -0.50410461
-0.4251253 0.58915734 -0.50859958
-0.42471483 0.59339494 -0.50506091
-0.42388046 0.60213548 -0.50640786
-0.42247811 0.61747479 -0.50297505
-0.42693397 0.6207757 -0.50543755
-0.42548555 0.6339981 -0.50856978
-0.42689478 0.641747 -0.50800061
-0.42240164 0.65996569 -0.50179207
-0.429795 0.66646063 -0.50735521
-0.42492118 0.67636997 -0.50338596
-0.42231777 0.68978399 -0.50410968
-0.42891818 0.69947296 -0.50345176
-0.42346701 0.70350522 -0.50686508
-0.42116392 0.71506184 -0.50640982
-0.42101109 0.72699451 -0.50472468
-0.42136163 0.73263812 -0.50680411
-0.42025307 0.74568141 -0.50169945
-0.42115647 0.75528693 -0.50819016
-0.42141744 0.76415253 -0.50774062
-0.42716825 0.77610886 -0.50997347
-0.42985758 0.78757727 -0.50481009
-0.42967343 0.7992785 -0.50198805
-0.42365623 0.80195975 -0.5070582
-0.4286727 0.81260639 -0.50926256
-0.42226207 0.82183504 -0.50158149
-0.42042711 0.83344913 -0.50497049
-0.425439 0.84989846 -0.50046217
-0.42314252 0.85623592 -0.50893193
-0.42277074 0.86304277 -0.50516629
-0.42906621 0.87645853 -0.5076887
-0.42109463 0.88025385 -0.50886536
-0.42764419 0.89513177 -0.50059342
-0.42748439 0.90236264 -0.50698006
-0.42745051 0.91080678 -0.50918943
-0.42104155 0.92275482 -0.50852227
-0.4200305 0.93823361 -0.50121415
-0.4261032 0.94542158 -0.50349182
-0.42401382 0.95942432 -0.50202715
-0.42395341 0.96296114 -0.50039464
-0.42737487 0.973355 -0.50093734
-0.42777404 0.9808206 -0.50299436
-0.42581508 0.99802387 -0.50137788
-0.4265275 1.0059971 -0.50870937
-0.41026169 -1.0068048 -0.50549775
-0.41819686 -0.99705249 -0.50660753
-0.41574287 -0.98116392 -0.50912619
-0.41784191 -0.97975165 -0.50622606
-0.41173974 -0.96777445 -0.50943035
-0.41284919 -0.95896375 -0.50066626
-0.41451937 -0.94722259 -0.50143224
-0.41168252 -0.93497425 -0.50657964
-0.41233853 -0.92179513 -0.50113678
-0.4129768 -0.91982478 -0.50242412
-0.41751924 -0.90793514 -0.50848967
-0.41780347 -0.89360154 -0.50198674
-0.41360733 -0.88433045 -0.50145602
-0.41125527 -0.87512469 -0.50683886
-0.41586512 -0.86773527 -0.50429869
-0.41913939 -0.85035384 -0.50309831
-0.41731307 -0.84611738 -0.50382471
-0.41139689 -0.83199883 -0.50651187
-0.41027308 -0.82911968 -0.50897098
-0.41026691 -0.81906706 -0.50002331
-0.41375229 -0.80343091 -0.5007478
-0.4188889 -0.79852962 -0.50111568
-0.41509035 -0.78447121 -0.50315017
-0.41430032 -0.77511185 -0.5029285
-0.41053322 -0.76515907 -0.5005905
-0.41669753 -0.75338471 -0.50380331
-0.41295192 -0.74733305 -0.50988042
-0.4191604 -0.7380392 -0.50942147
-0.41381067 -0.72269738 -0.50093806
-0.41451746 -0.71109802 -0.50339764
-0.41934288 -0.701249 -0.50044143
-0.41966686 -0.69558847 -0.50062358
-0.41715038 -0.68736798 -0.50396329
-0.41334981 -0.67549813 -0.50182384
-0.41905013 -0.6638236 -0.50221497
-0.4198772 -0.65291715 -0.50445873
-0.41065535 -0.64732063 -0.50235611
-0.41469765 -0.63737106 -0.50723821
-0.41005951 -0.62986928 -0.50368243
-0.41717574 -0.61336529 -0.50102615
-0.41462272 -0.60569024 -0.50082076
-0.41230702 -0.59822065 -0.50480872
-0.41364557 -0.58126408 -0.50329304
-0.41996408 -0.57792002 -0.5081982
-0.41745237 -0.56150633 -0.50024158
-0.41499168 -0.55739456 -0.50973552
-0.41417265 -0.54445463 -0.50768
-0.41356763 -0.53987741 -0.50965816
-0.4136374 -0.52892381 -0.50829422
-0.414092 -0.51487893 -0.50699621
-0.41684145 -0.50348622 -0.50407457
-0.41438994 -0.49097744 -0.50624502
-0.4139505 -0.48532516 -0.50220543
-0.41977358 -0.47843871 -0.5020929
-0.41096765 -0.46368718 -0.50795972
-0.4123345 -0.45461595 -0.50807583
-0.4166778 -0.44689471 -0.50183982
-0.41822866 -0.43779749 -0.50812733
-0.41249183 -0.42835015 -0.5077374
-0.41444701 -0.41548496 -0.50478798
-0.41152769 -0.40698802 -0.50685418
-0.41224226 -0.39573169 -0.50935155
-0.41041338 -0.38405222 -0.50547343
-0.41917315 -0.37534481 -0.50832319
-0.41994768 -0.36105773 -0.50119668
-0.41033953 -0.35785329 -0.50073236
-0.41495395 -0.34305444 -0.50641382
-0.41269088 -0.33091483 -0.50206673
-0.41968077 -0.32246047 -0.50914741
-0.41875082 -0.31542224 -0.5044862
-0.41385069 -0.30206996 -0.50654823
-0.41015792 -0.29199922 -0.50121605
-0.41181892 -0.2852619 -0.50749552
-0.41998109 -0.27748552 -0.50756615
-0.41801116 -0.2691884 -0.50846672
-0.41505778 -0.25318074 -0.50296187
-0.41871402 -0.2404606 -0.50701576
-0.41858172 -0.23903026 -0.50106597
-0.41069472 -0.22878107 -0.50661904
-0.41841641 -0.21597372 -0.50229293
-0.41664484 -0.20188107 -0.50021756
-0.41376525 -0.19913152 -0.50926507
-0.41128632 -0.18011492 -0.50349051
-0.41236249 -0.17766915 -0.50981611
-0.41681394 -0.16826242 -0.50619841
-0.41669497 -0.15006027 -0.50634134
-0.41297364 -0.14747611 -0.50300199
-0.41752329 -0.1332027 -0.50441837
-0.41630217 -0.12603702 -0.50069124
-0.4191893 -0.11043173 -0.50820863
-0.41393009 -0.10072849 -0.50061309
-0.41080159 -0.098569781 -0.50105143
-0.41506687 -0.083357193 -0.50624752
-0.414184 -0.076032989 -0.5011735
-0.41848046 -0.060248423 -0.5074994
-0.41003427 -0.059755631 -0.50523591
-0.41680568 -0.041132968 -0.50765139
-0.415425 -0.03975315 -0.50885218
-0.41057846 -0.022816245 -0.50122696
-0.41795495 -0.014522037 -0.50376374
-0.41707149 -0.0042539272 -0.5000174
-0.4184804 0.0042246291 -0.50494736
-0.41094899 0.016809544 -0.50363773
-0.41883504 0.023540493 -0.50414258
-0.41799495 0.033797264 -0.50082421
-0.41176859 0.041346572 -0.50879943
-0.41156963 0.05744734 -0.50334746
-0.41956407 0.060214072 -0.50359327
-0.41802388 0.077152118 -0.50798303
-0.41310611 0.089598089 -0.5072338
-0.41161388 0.091766335 -0.50694108
-0.41996458 0.10116982 -0.50393188
-0.41758376 0.11031567 -0.50635678
-0.41907552 0.12572782 -0.50986797
-0.41837674 0.13860142 -0.50897616
-0.41408566 0.14468956 -0.50109541
-0.41004759 0.15940908 -0.50076699
-0.41129965 0.1625699 -0.50989211
-0.41532129 0.1742108 -0.50889665
-0.41529506 0.18233083 -0.50890172
-0.4144125 0.1957752 -0.50449133
-0.41958177 0.20511666 -0.50098163
-0.41610312 0.21224174 -0.50341147
-0.4111349 0.2245339 -0.50951624
-0.4130592 0.23230374 -0.50456232
-0.41463172 0.24695866 -0.5076744
-0.41944146 0.25908947 -0.50483936
-0.41450116 0.2685625 -0.50782108
-0.41499192 0.27678114 -0.50724387
-0.41566828 0.28456211 -0.50743252
-0.41196617 0.29352123 -0.50369811
-0.41677895 0.30913883 -0.50355387
-0.41932917 0.31063253 -0.50316799
-0.41508633 0.32774806 -0.50589997
-0.41587043 0.33555543 -0.50262594
-0.41825634 0.34718591 -0.50633359
-0.41574454 0.35557994 -0.50082129
-0.41335961 0.36008698 -0.50768054
-0.41984975 0.3718209 -0.50031745
-0.41607371 0.38837349 -0.50359327
-0.4143298 0.3970131 -0.50102562
-0.41838598 0.40389255 -0.50825822
-0.4100773 0.41011629 -0.50536311
-0.41289517 0.429281 -0.50736499
-0.41416863 0.43056551 -0.50926661
-0.41739857 0.44419301 -0.50569165
-0.41464293 0.45887002 -0.50470358
-0.41169983 0.46989429 -0.50419855
-0.41689903 0.47179544 -0.50234628
-0.4114992 0.48696885 -0.5059368
-0.41591072 0.49741361 -0.5034287
-0.4156521 0.50745791 -0.50032532
-0.41942948 0.5125888 -0.5060392
-0.41674286 0.52586257 -0.50858957
-0.41531593 0.53370208 -0.50443017
-0.41750562 0.5421477 -0.50998509
-0.41128072 0.55145258 -0.50610834
-0.41888306 0.56649077 -0.50999004
-0.41701791 0.5748359 -0.5026232
-0.41370118 0.58701563 -0.50579518
-0.41988945 0.59489387 -0.50389302
-0.41883555 0.60539848 -0.50877386
-0.41253701 0.61944318 -0.50492495
-0.41698891 0.62694347 -0.5029363
-0.41485253 0.6314736 -0.50322533
-0.4198916 0.64328498 -0.50952709
-0.41920024 0.65226823 -0.50112426
-0.41226229 0.66933727 -0.50690478
-0.41970491 0.67715776 -0.5053333
-0.41591039 0.68479061 -0.50695753
-0.41859907 0.69520146 -0.50277364
-0.41829222 0.70542264 -0.5038529
-0.41685808 0.71559131 -0.50848824
-0.41018763 0.72779584 -0.50433481
-0.41664413 0.73834687 -0.50432694
-0.41438964 0.74748868 -0.50098908
-0.4166663 0.75124198 -0.50699031
-0.41950563 0.76356184 -0.50078845
-0.41425014 0.77769017 -0.50137585
-0.41414365 0.78510273 -0.50974423
-0.41394866 0.79432446 -0.50709802
-0.41652495 0.80760771 -0.50164282
-0.4156698 0.81720126 -0.50957358
-0.41834807 0.82093406 -0.50637847
-0.41954347 0.83369583 -0.50471896
-0.41149971 0.84077328 -0.50530201
-0.41020462 0.85405105 -0.50089073
-0.41701454 0.86414015 -0.50010234
-0.41438386 0.87533039 -0.50970113
-0.41377777 0.88331449 -0.50346816
-0.4131225 0.89548326 -0.50592655
-0.41974914 0.90579075 -0.5073148
-0.41890547 0.91348881 -0.50437719
-0.41957587 0.92729354 -0.50052053
-0.41849619 0.93680847 -0.50902206
-0.41211876 0.94575322 -0.50071383
-0.41388127 0.95280099 -0.50551003
-0.41983896 0.96992701 -0.50466615
-0.41809383 0.9748255 -0.50492197
-0.41289166 0.98018533 -0.5059917
-0.41018564 0.9961834 -0.50511461
-0.41465339 1.0089841 -0.50970203
-0.40125754 -1.003571 -0.50579536
-0.40479076 -0.99544173 -0.50227326
-0.40976414 -0.9837566 -0.50460559
-0.40271974 -0.97988045 -0.50948691
-0.40209368 -0.96409327 -0.50894958
-0.40824655 -0.95893413 -0.50601727
-0.40045348 -0.94528258 -0.5038712
-0.40510553 -0.93712163 -0.50591785
-0.40818548 -0.92560267 -0.50429934
-0.40612486 -0.91733915 -0.50762922
-0.40776783 -0.90881085 -0.5099479
-0.40305603 -0.89615566 -0.50853306
-0.40099949 -0.88654637 -0.50641382
-0.40051249 -0.87155443 -0.50010669
-0.40736216 -0.8688463 -0.50968069
-0.40386835 -0.85202003 -0.5005421
-0.40723494 -0.84824139 -0.50337797
-0.40592563 -0.83899283 -0.50211143
-0.40197232 -0.82547748 -0.50837624
-0.40349421 -0.81149328 -0.50574756
-0.40189931 -0.8003692 -0.50578171
-0.4085806 -0.79844207 -0.50655878
-0.4040038 -0.78597248 -0.50698447
-0.40655956 -0.77851468 -0.50875682
-0.4034768 -0.76286566 -0.50306183
-0.4041023 -0.75141728 -0.5050624
-0.4081752 -0.74858826 -0.50253564
-0.40681043 -0.73456252 -0.5051766
-0.40067434 -0.72278219 -0.50953484
-0.40981793 -0.71116883 -0.50062734
-0.40081373 -0.70911878 -0.50764185
-0.40319872 -0.69297618 -0.50740844
-0.40335158 -0.68743086 -0.50738615
-0.40798458 -0.67182076 -0.50000221
-0.40462404 -0.66730022 -0.50823987
-0.40222439 -0.65726846 -0.50644261
-0.40138686 -0.64988583 -0.50591856
-0.40182319 -0.63298178 -0.50275308
-0.40652096 -0.62110984 -0.50388312
-0.40455437 -0.615834 -0.50723797
-0.40992066 -0.60200918 -0.505373
-0.40724725 -0.59747595 -0.50278336
-0.40676534 -0.58122283 -0.50214636
-0.40035865 -0.57388562 -0.5071274
-0.40316704 -0.56191766 -0.50966203
-0.40868157 -0.55258524 -0.50713384
-0.40027523 -0.54404926 -0.50822037
-0.40558785 -0.53333062 -0.5066151
-0.402702 -0.52473766 -0.5070076
-0.40907586 -0.51981235 -0.50928158
-0.40004608 -0.50816894 -0.50322896
-0.403878 -0.49252853 -0.50205427
-0.40841818 -0.48891208 -0.50766104
-0.40303543 -0.47555006 -0.50975215
-0.40575254 -0.46815526 -0.50868297
-0.40802237 -0.45820591 -0.50649947
-0.40507442 -0.44527078 -0.50018531
-0.40477496 -0.43670616 -0.50022674
-0.4058722 -0.42676568 -0.50529855
-0.40167207 -0.41838577 -0.50331557
-0.40870038 -0.40585366 -0.50574076
-0.40357888 -0.39254838 -0.50176865
-0.40158749 -0.38560581 -0.50565147
-0.40990692 -0.37302393 -0.50329542
-0.4029001 -0.3638992 -0.50881946
-0.4024702 -0.35650662 -0.50042754
-0.40131339 -0.34942001 -0.50139493
-0.40248817 -0.33156118 -0.50503188
-0.40201002 -0.32007816 -0.50952441
-0.40420568 -0.31436184 -0.5003919
-0.40726823 -0.30277953 -0.50747854
-0.40862036 -0.29055446 -0.50158095
-0.40508458 -0.2839146 -0.50770569
-0.40597418 -0.27389681 -0.50957012
-0.40658942 -0.26317707 -0.5067637
-0.40680563 -0.25419569 -0.50434875
-0.40257385 -0.24996698 -0.50694954
-0.40352425 -0.23733069 -0.50058776
-0.40026578 -0.22212742 -0.5011614
-0.40162966 -0.21521196 -0.50896496
-0.40462852 -0.20810908 -0.50984079
-0.40617132 -0.19943252 -0.50862372
-0.40587175 -0.18843673 -0.5025897
-0.40552658 -0.17084597 -0.50811493
-0.40907797 -0.16427876 -0.50972021
-0.40260211 -0.15319896 -0.50494671
-0.40124351 -0.14468835 -0.50714737
-0.40493733 -0.1321674 -0.50894988
-0.40071112 -0.12392771 -0.50723922
-0.40340841 -0.11073254 -0.50832433
-0.40337759 -0.10893709 -0.50847989
-0.40689841 -0.09387181 -0.50454468
-0.40303552 -0.08546254 -0.50617003
-0.40092731 -0.072586715 -0.5015766
-0.40506792 -0.06049348 -0.50708842
-0.40293235 -0.057731062 -0.50802344
-0.40129116 -0.041740861 -0.50380802
-0.40159687 -0.035438858 -0.50514007
-0.40030029 -0.023048216 -0.50894654
-0.40862358 -0.016277488 -0.50933862
-0.40804178 -0.0018228004 -0.50744182
-0.40393865 0.0029664703 -0.50363559
-0.40969369 0.018563736 -0.50393242
-0.4026905 0.021645287 -0.50995028
-0.40175202 0.030906016 -0.50790149
-0.4025501 0.04026898 -0.50252891
-0.40639719 0.056714565 -0.50157046
-0.40382999 0.064045072 -0.50271642
-0.40094697 0.074514009 -0.5013265
-0.40095258 0.086790927 -0.50936693
-0.40131313 0.096901752 -0.50415385
-0.40403709 0.10581543 -0.50987124
-0.40201882 0.11788397 -0.50453335
-0.40028512 0.12065689 -0.5096876
-0.406932 0.13893244 -0.50051731
-0.40215367 0.14923733 -0.50307149
-0.40726587 0.15868691 -0.50526154
-0.40983897 0.16620316 -0.50502908
-0.40618947 0.17068622 -0.5099048
-0.40121311 0.18258514 -0.50862592
-0.40775687 0.19639878 -0.5018447
-0.40215141 0.20964201 -0.5086056
-0.40867054 0.2180451 -0.50010508
-0.40736848 0.22421438 -0.5061841
-0.40121919 0.23876415 -0.50966573
-0.40295526 0.2480315 -0.50357932
-0.40283147 0.25310898 -0.50800741
-0.40310192 0.26985878 -0.50450104
-0.4036752 0.27003884 -0.50083351
-0.40637884 0.2846767 -0.50380206
-0.40305328 0.29855418 -0.50492883
-0.40304011 0.30680141 -0.50097769
-0.40807837 0.31583932 -0.50672907
-0.40687594 0.32828525 -0.5004862
-0.40685397 0.33866125 -0.50542098
-0.40160888 0.34226012 -0.50586855
-0.40691343 0.35302711 -0.50584894
-0.40109769 0.36245534 -0.50335222
-0.40967357 0.37657374 -0.50790244
-0.40640149 0.38759556 -0.50047493
-0.40130872 0.39491937 -0.50190574
-0.40865102 0.40896389 -0.50053108
-0.40209055 0.41044798 -0.50427401
-0.40913099 0.42877981 -0.50640166
-0.40313122 0.43162176 -0.50173092
-0.40048841 0.44703537 -0.50312489
-0.40474054 0.45632303 -0.50895566
-0.40834582 0.46658763 -0.50105178
-0.40227312 0.47774327 -0.50473428
-0.40269372 0.48384503 -0.50526297
-0.40180504 0.49684328 -0.50515282
-0.4073298 0.50495416 -0.50128049
-0.40223929 0.51757044 -0.50173736
-0.40907672 0.52737516 -0.50378752
-0.40329063 0.53082365 -0.50309759
-0.40917307 0.54151326 -0.50123656
-0.40868288 0.55406493 -0.50275803
-0.40005311 0.56738204 -0.50304329
-0.40280724 0.57616562 -0.50097132
-0.40297547 0.58505166 -0.50348407
-0.40285558 0.59565425 -0.50326639
-0.409814 0.60223919 -0.50495851
-0.40855929 0.61990982 -0.50288284
-0.40745088 0.62537003 -0.50052094
-0.40356031 0.63889241 -0.50889581
-0.40166453 0.6407814 -0.5026114
-0.40724534 0.65066814 -0.50504839
-0.40608853 0.66350186 -0.50375855
-0.40790176 0.67287552 -0.50501782
-0.40105283 0.6861071 -0.50195026
-0.40496513 0.69850206 -0.50547135
-0.40497077 0.70567238 -0.50107211
-0.40103158 0.71694261 -0.50557196
-0.40484831 0.7263025 -0.50675201
-0.40099236 0.73637414 -0.50599384
-0.40155244 0.74880582 -0.50251758
-0.40651098 0.75290138 -0.50805372
-0.40934029 0.76175624 -0.50717586
-0.40181008 0.77080142 -0.50201112
-0.40844011 0.78840047 -0.50649625
-0.40961006 0.79344165 -0.50689691
-0.40737638 0.8096987 -0.50503832
-0.40795505 0.81689239 -0.5075441
-0.4028134 0.82951546 -0.50971127
-0.40940014 0.83495438 -0.50267535
-0.40792429 0.84868538 -0.50110954
-0.40406767 0.85944188 -0.50825363
-0.40482694 0.86126423 -0.50597018
-0.40113482 0.87910312 -0.50349313
-0.40674245 0.88416332 -0.50859988
-0.40714872 0.89756113 -0.50476241
-0.40178445 0.90708554 -0.50950503
-0.40240264 0.91227907 -0.50584185
-0.40661979 0.92333966 -0.50774384
-0.40070587 0.9360261 -0.50702316
-0.4002271 0.94934922 -0.50681746
-0.40936753 0.95575058 -0.50050443
-0.40204507 0.96802294 -0.50370997
-0.40624601 0.97790283 -0.5015797
-0.40785789 0.98623496 -0.50951397
-0.40117759 0.99539107 -0.5053702
-0.40961459 1.0068119 -0.50633746
-0.39734125 -1.0014865 -0.50151491
-0.39417985 -0.99324459 -0.50845486
-0.3934837 -0.98881131 -0.50676167
-0.39488623 -0.97741842 -0.50763392
-0.39486629 -0.96751332 -0.50106603
-0.39475125 -0.95879453 -0.50050819
-0.39055908 -0.94344699 -0.50056243
-0.3915413 -0.93706387 -0.50643176
-0.3992843 -0.92908043 -0.50437659
-0.39199087 -0.91743177 -0.50099766
-0.39155126 -0.90388191 -0.50689805
-0.3958253 -0.89691961 -0.50284266
-0.39095396 -0.88704544 -0.50581884
-0.39056197 -0.8781963 -0.50545758
-0.39329323 -0.86753827 -0.5089432
-0.39863846 -0.85139561 -0.50756246
-0.39322689 -0.84246761 -0.50826633
-0.39023173 -0.8351059 -0.50724399
-0.39713761 -0.82540584 -0.50187016
-0.3960754 -0.81924278 -0.50848085
-0.39437804 -0.80025464 -0.50436497
-0.39187443 -0.79419607 -0.50048333
-0.39724815 -0.78924882 -0.50469387
-0.39932245 -0.77454352 -0.50069141
-0.39455909 -0.76479441 -0.50701666
-0.39263397 -0.75916195 -0.50730342
-0.39989057 -0.7410574 -0.50905931
-0.39905372 -0.73276472 -0.50092012
-0.39600843 -0.72305423 -0.5028646
-0.39619479 -0.71231401 -0.50423104
-0.39116332 -0.70518863 -0.50669569
-0.39851502 -0.69508213 -0.50609678
-0.39829019 -0.68678677 -0.50143874
-0.39842564 -0.67479777 -0.5092929
-0.39142993 -0.66881639 -0.5092442
-0.39825723 -0.65068197 -0.50033945
-0.39724097 -0.64992911 -0.50679678
-0.3935549 -0.63555634 -0.50159055
-0.39209026 -0.62306619 -0.50673896
-0.39157778 -0.61266047 -0.50701541
-0.39927876 -0.60617685 -0.5055747
-0.39483306 -0.59979254 -0.50053865
-0.3992058 -0.58176839 -0.50812453
-0.39673021 -0.57958847 -0.50564814
-0.39180693 -0.56165206 -0.50846434
-0.39645779 -0.55557454 -0.50013858
-0.3979221 -0.54529643 -0.50758058
-0.39433637 -0.53529376 -0.50895864
-0.39380476 -0.52928263 -0.50505185
-0.39225373 -0.51503396 -0.50876337
-0.39464039 -0.50339651 -0.50661814
-0.39024737 -0.49826601 -0.50173968
-0.39165682 -0.48198816 -0.50637162
-0.39130083 -0.47165704 -0.5074327
-0.39734322 -0.46396697 -0.50611514
-0.39715892 -0.45863256 -0.50188893
-0.39169139 -0.44097441 -0.50788999
-0.39771619 -0.436896 -0.50457633
-0.39369965 -0.42755002 -0.50494909
-0.39767888 -0.41238555 -0.50807518
-0.39458346 -0.40950999 -0.50000232
-0.39650974 -0.39013425 -0.50175804
-0.39136735 -0.38132033 -0.50091457
-0.39795685 -0.37848765 -0.50158799
-0.39237085 -0.36630112 -0.50608897
-0.39877871 -0.35631439 -0.50495392
-0.39778364 -0.3426148 -0.50196594
-0.39665031 -0.33779439 -0.50517058
-0.39601552 -0.32295868 -0.50505197
-0.39312226 -0.31612456 -0.50203395
-0.39094368 -0.30722186 -0.50470954
-0.39610872 -0.29248518 -0.5039174
-0.39601171 -0.28641927 -0.50645614
-0.39776927 -0.27708355 -0.50531816
-0.39322937 -0.26564366 -0.50061542
-0.39466903 -0.25348002 -0.5000326
-0.39499542 -0.24296242 -0.50907212
-0.39981335 -0.23115486 -0.50241148
-0.39816692 -0.22523917 -0.50634503
-0.39187139 -0.21189912 -0.50128025
-0.39911819 -0.20400898 -0.50563401
-0.3942824 -0.19208349 -0.50765598
-0.39035827 -0.18101272 -0.50545079
-0.39302316 -0.17619528 -0.50277305
-0.39597806 -0.16135831 -0.50053161
-0.39742544 -0.15943943 -0.50907028
-0.39163542 -0.14043151 -0.50979191
-0.39755929 -0.13258709 -0.50430459
-0.3923887 -0.12999673 -0.50757742
-0.39891824 -0.11698108 -0.50114852
-0.39291856 -0.10762618 -0.50805104
-0.39765364 -0.099091068 -0.50119984
-0.39691618 -0.081443787 -0.50366098
-0.39503509 -0.079344727 -0.50463486
-0.39578816 -0.069757171 -0.50416368
-0.39453822 -0.057410888 -0.50962502
-0.3992157 -0.043562952 -0.50324458
-0.39192158 -0.030798532 -0.50451511
-0.39074162 -0.021924997 -0.50104058
-0.39227575 -0.014639257 -0.50548923
-0.39712265 -0.0073977616 -0.50081319
-0.39384711 0.0056301216 -0.50114417
-0.39820153 0.016140064 -0.50331205
-0.39497507 0.02441914 -0.50182462
-0.39765704 0.033326879 -0.50053984
-0.39278436 0.04258487 -0.50607705
-0.39206854 0.05280862 -0.50074941
-0.39634433 0.069087341 -0.50098729
-0.392463 0.075995199 -0.50525224
-0.39552701 0.087670028 -0.50603479
-0.39804536 0.092895508 -0.50108367
-0.39116058 0.10101452 -0.50423723
-0.39582184 0.11957325 -0.50070745
-0.39899057 0.12836941 -0.50578463
-0.39592788 0.13594683 -0.50385976
-0.3999033 0.14127198 -0.50023168
-0.39551735 0.15438651 -0.50420326
-0.39446622 0.16230693 -0.50385076
-0.39302108 0.17908502 -0.50614029
-0.39114976 0.18834351 -0.50840461
-0.39958251 0.19194902 -0.50327742
-0.39708102 0.20670979 -0.50924563
-0.39681235 0.21692888 -0.50116378
-0.39374799 0.22238548 -0.500763
-0.39380872 0.23152712 -0.50209546
-0.39661279 0.24172397 -0.50623775
-0.39314273 0.25418386 -0.50029117
-0.39763397 0.26204079 -0.50544667
-0.39780369 0.27863145 -0.50561798
-0.39536971 0.280301 -0.50780094
-0.39739037 0.29658318 -0.50724888
-0.39646846 0.30364361 -0.50602055
-0.39914945 0.31218547 -0.50215155
-0.399957 0.32871693 -0.50545597
-0.39238113 0.33156043 -0.50742251
-0.39238456 0.34772027 -0.50925118
-0.39663988 0.35538077 -0.50763267
-0.39840695 0.3647218 -0.50501561
-0.39117315 0.37429455 -0.50802499
-0.39105749 0.38357177 -0.50809973
-0.39332336 0.39279929 -0.5086686
-0.39316878 0.40856099 -0.50388235
-0.39127412 0.41887695 -0.50044322
-0.3934947 0.42518029 -0.50227225
-0.39346299 0.4386847 -0.50682926
-0.3945612 0.44544211 -0.50461221
-0.39141238 0.45115122 -0.50946885
-0.39075896 0.46410042 -0.50249487
-0.39383081 0.47623917 -0.5085426
-0.39448717 0.48413759 -0.50398159
-0.39254797 0.49405089 -0.50575638
-0.39484769 0.50527263 -0.50072217
-0.3933098 0.51249951 -0.50643909
-0.39061201 0.52609795 -0.50263441
-0.39300478 0.53129828 -0.50872856
-0.39079595 0.54864538 -0.50550389
-0.39717081 0.55966723 -0.50761604
-0.39209622 0.56644821 -0.50637954
-0.3929503 0.57220411 -0.50974041
-0.39344195 0.58051014 -0.50116837
-0.39317447 0.59078002 -0.50557005
-0.39787546 0.60822392 -0.50979996
-0.39705306 0.61341739 -0.50050426
-0.39688677 0.62529123 -0.5050723
-0.3981759 0.63503313 -0.50779057
-0.39132693 0.64206815 -0.5061534
-0.39165068 0.65516782 -0.50804073
-0.39579427 0.66804355 -0.50131387
-0.3965992 0.67833602 -0.50634909
-0.3984203 0.68939853 -0.50543374
-0.3901329 0.69873863 -0.50814247
-0.39237002 0.70726699 -0.50094402
-0.39681146 0.71192968 -0.50389618
-0.39466402 0.72278911 -0.50104952
-0.39943776 0.73706388 -0.508169
-0.39168325 0.74933594 -0.50494242
-0.39447233 0.75275898 -0.50218791
-0.39030001 0.76529348 -0.50771737
-0.39467266 0.77462107 -0.5087778
-0.39215481 0.78133821 -0.5097267
-0.39242706 0.79890102 -0.50410312
-0.39522547 0.80664927 -0.50333428
-0.39908636 0.81490356 -0.50471413
-0.39439186 0.82698035 -0.50133818
-0.39116496 0.83021587 -0.50936496
-0.39677915 0.84682798 -0.508964
-0.39504215 0.85131383 -0.50814992
-0.39618874 0.86117655 -0.50934291
-0.39451751 0.87898785 -0.50135976
-0.39232978 0.88520592 -0.50452268
-0.39706376 0.89586735 -0.50929815
-0.3930721 0.90099281 -0.50239742
-0.39167812 0.91831613 -0.50011855
-0.39504367 0.92619115 -0.50093383
-0.39994082 0.93118 -0.50697052
-0.39429399 0.94568741 -0.50693774
-0.39137542 0.95770794 -0.50499421
-0.393473 0.96111202 -0.50451714
-0.39444894 0.97920007 -0.50692374
-0.39973411 0.98867512 -0.50430197
-0.39618775 0.9928562 -0.50656903
-0.39390141 1.0019562 -0.50832778
-0.38536018 -1.0038517 -0.50748557
-0.38344955 -0.99214119 -0.50592291
-0.38309094 -0.98180962 -0.5058254
-0.38615024 -0.97179252 -0.5036934
-0.38119671 -0.96813518 -0.50547707
-0.38879135 -0.95750749 -0.50089437
-0.38246605 -0.94105834 -0.50651181
-0.38701391 -0.93828547 -0.50171471
-0.38336924 -0.92435813 -0.50082529
-0.38293532 -0.91514724 -0.50716084
-0.38903776 -0.90802717 -0.50175864
-0.38952526 -0.89618647 -0.50484002
-0.38157839 -0.8820762 -0.50790346
-0.38098273 -0.8768298 -0.50227308
-0.38540146 -0.8616237 -0.50500649
-0.38847485 -0.85808963 -0.50925392
-0.38726762 -0.84242404 -0.50669903
-0.38347119 -0.83228528 -0.50267446
-0.38377795 -0.82727444 -0.5037635
-0.38181052 -0.81471574 -0.50325906
-0.38217396 -0.80224502 -0.50028473
-0.38982096 -0.79808027 -0.50808644
-0.38422728 -0.7809031 -0.50384432
-0.38663381 -0.7708835 -0.50333261
-0.38990873 -0.76824659 -0.50163972
-0.38878939 -0.75368893 -0.50706595
-0.3871114 -0.74007499 -0.50821888
-0.38722771 -0.73470825 -0.5011518
-0.38630244 -0.72991472 -0.50172907
-0.38126549 -0.71271765 -0.50625414
-0.3818399 -0.70205295 -0.50332808
-0.38361174 -0.69249094 -0.50248992
-0.38227803 -0.68460602 -0.50511503
-0.38770455 -0.67631739 -0.50329429
-0.38224417 -0.6618908 -0.50332326
-0.38150632 -0.65676969 -0.50414544
-0.38697815 -0.64870852 -0.50158441
-0.38582316 -0.63223064 -0.50596946
-0.38666421 -0.62901437 -0.50732476
-0.3876729 -0.61007118 -0.50770521
-0.38416356 -0.60655993 -0.5000568
-0.38564882 -0.59273231 -0.50338745
-0.38913104 -0.58541584 -0.50574589
-0.38791963 -0.57688957 -0.5023306
-0.38181639 -0.56147891 -0.50038004
-0.3884111 -0.55618894 -0.50243127
-0.38008571 -0.54138982 -0.50714314
-0.38311604 -0.53564787 -0.50540006
-0.3854472 -0.52383131 -0.50578004
-0.3871116 -0.51154608 -0.50132382
-0.38599122 -0.50360572 -0.50458252
-0.38996664 -0.49642053 -0.5099718
-0.38640112 -0.48337066 -0.50072414
-0.38042587 -0.47145224 -0.50498104
-0.38394263 -0.46055725 -0.50597537
-0.38725498 -0.4553172 -0.50476944
-0.38736677 -0.44148886 -0.50366521
-0.38872695 -0.43463963 -0.50306046
-0.3891547 -0.4246484 -0.50770563
-0.3815766 -0.41265592 -0.50048065
-0.38028878 -0.40949816 -0.50875664
-0.38076827 -0.39866388 -0.50671834
-0.3834281 -0.38661525 -0.50285697
-0.38864467 -0.37650648 -0.5093385
-0.38752785 -0.364833 -0.50369054
-0.38745487 -0.35082397 -0.50729024
-0.38781893 -0.34163556 -0.50365555
-0.38496754 -0.33954352 -0.50010151
-0.38184577 -0.32735032 -0.50566882
-0.38795471 -0.31960648 -0.50681955
-0.38467681 -0.30170825 -0.50719982
-0.38348669 -0.2946313 -0.50491333
-0.38815495 -0.28869247 -0.50031447
-0.3886697 -0.27659172 -0.50229853
-0.38232923 -0.26464158 -0.50009483
-0.38813606 -0.25453693 -0.50313681
-0.38795099 -0.24452306 -0.50748259
-0.3887853 -0.23077343 -0.50897539
-0.38039878 -0.22835128 -0.50776798
-0.38601381 -0.21116138 -0.50973552
-0.38975081 -0.20657325 -0.50265902
-0.38629478 -0.19493483 -0.50284141
-0.38209942 -0.18334061 -0.50855279
-0.38736513 -0.17577104 -0.50023371
-0.38377577 -0.16505972 -0.50898999
-0.38407555 -0.15785043 -0.50469953
-0.38010436 -0.1474909 -0.50039107
-0.38448435 -0.13345484 -0.50020236
-0.38212511 -0.12795436 -0.50429481
-0.38018945 -0.11147985 -0.50369608
-0.38484627 -0.10120624 -0.50186914
-0.38185349 -0.097790584 -0.50422496
-0.38850859 -0.08346691 -0.50423354
-0.38164341 -0.079358749 -0.5025484
-0.38695681 -0.062661089 -0.50561607
-0.38298166 -0.053607419 -0.50325352
-0.3874492 -0.04951977 -0.50493193
-0.38539389 -0.031648636 -0.50244993
-0.38361198 -0.029694067 -0.50948107
-0.3876195 -0.011250584 -0.50403088
-0.38445127 -0.0002768049 -0.50177038
-0.3886463 0.004247386 -0.5033018
-0.38800114 0.011400705 -0.50839478
-0.38742834 0.02188519 -0.50822318
-0.38007146 0.035238851 -0.50755703
-0.38780227 0.040389493 -0.50074416
-0.38855672 0.050222825 -0.50074404
-0.38158593 0.063008137 -0.50108421
-0.38564554 0.078376107 -0.50489026
-0.38819912 0.086672202 -0.50496352
-0.3882198 0.090427101 -0.50810981
-0.38592181 0.10905759 -0.50073546
-0.38912678 0.11250066 -0.50352669
-0.38731879 0.12792844 -0.50775343
-0.38184297 0.13883518 -0.50601429
-0.38710782 0.14807783 -0.50006574
-0.38715664 0.15301737 -0.50359052
-0.38480511 0.16939621 -0.50498182
-0.38244408 0.17378649 -0.50431448
-0.38140544 0.18423013 -0.50267565
-0.38397899 0.1956051 -0.50338978
-0.38208321 0.20148031 -0.50510186
-0.38474298 0.21260388 -0.50041938
-0.38934413 0.22236885 -0.50374192
-0.38192397 0.23478201 -0.50921947
-0.38378823 0.24076085 -0.50452048
-0.38359308 0.25392732 -0.50744313
-0.38671294 0.26279557 -0.50417876
-0.38868454 0.2749455 -0.50721574
-0.38041833 0.28905895 -0.50714606
-0.38970441 0.2947464 -0.50855839
-0.38438076 0.30840272 -0.50683391
-0.38140985 0.31542408 -0.50173718
-0.38211182 0.32636198 -0.50991517
-0.38727158 0.3396886 -0.50480437
-0.38374376 0.34208682 -0.5056532
-0.38783622 0.35492492 -0.5080266
-0.38199922 0.36206052 -0.50461835
-0.38342139 0.37944865 -0.50417
-0.38590571 0.38961974 -0.50765955
-0.38002968 0.39298075 -0.50423765
-0.38680115 0.40450668 -0.50552094
-0.3859604 0.41576299 -0.50183314
-0.38354531 0.42385212 -0.50924742
-0.38401353 0.43870723 -0.509718
-0.38961491 0.44849655 -0.5024243
-0.38164139 0.45439813 -0.50688332
-0.38930875 0.4610782 -0.50819248
-0.38796771 0.47531173 -0.5093841
-0.38417381 0.48066783 -0.50497156
-0.38900897 0.49182403 -0.5006336
-0.38963035 0.50603324 -0.50540006
-0.38136962 0.51036876 -0.50721657
-0.38265997 0.52513587 -0.5053795
-0.38499835 0.53684324 -0.50066596
-0.38808796 0.54660064 -0.50109935
-0.38270131 0.55920154 -0.50210571
-0.38899794 0.56805879 -0.50293636
-0.38666666 0.57979083 -0.50891268
-0.38736588 0.58677661 -0.50130504
-0.38947353 0.59897947 -0.50309575
-0.38528889 0.60677963 -0.50636649
-0.38199827 0.61204356 -0.50213689
-0.38310677 0.62355077 -0.5086844
-0.38143703 0.63674057 -0.50262958
-0.38498929 0.64317483 -0.50315094
-0.38456431 0.65528321 -0.50569332
-0.38943937 0.66682392 -0.50721574
-0.38769361 0.67365295 -0.50928998
-0.38017806 0.68195856 -0.50900513
-0.38782653 0.69938892 -0.50989151
-0.38694787 0.70771849 -0.50351888
-0.38498178 0.71819276 -0.50412691
-0.38767055 0.72436756 -0.50739717
-0.38497692 0.73238599 -0.50805819
-0.38760436 0.74232709 -0.50322425
-0.38779965 0.75940627 -0.50402236
-0.38663787 0.76256955 -0.50103301
-0.38183206 0.77664381 -0.50608099
-0.38928702 0.78340352 -0.50590372
-0.38761228 0.79302317 -0.50123566
-0.3873404 0.80539364 -0.50348544
-0.38920298 0.81576395 -0.50897217
-0.38635695 0.8270154 -0.50436145
-0.38131461 0.83103716 -0.50176203
-0.38711879 0.84535742 -0.50549054
-0.38652381 0.85408521 -0.50262314
-0.38973191 0.86214375 -0.50005889
-0.38920867 0.87724131 -0.50745618
-0.38522065 0.88059002 -0.50594157
-0.38068673 0.89746189 -0.50468904
-0.3868759 0.90628916 -0.50408512
-0.38073629 0.91046071 -0.50281584
-0.38895726 0.92367154 -0.50674689
-0.38980415 0.93642056 -0.50748497
-0.38405749 0.94229811 -0.50491095
-0.38180858 0.95915395 -0.50174856
-0.38660261 0.96676791 -0.50686496
-0.38614032 0.97332466 -0.50230443
-0.38045597 0.98522902 -0.50491542
-0.38072389 0.99330717 -0.50841963
-0.38031375 1.0070055 -0.50629842
-0.37595907 -1.0057307 -0.50272197
-0.37163135 -0.99075621 -0.50476134
-0.37566203 -0.98108441 -0.50148648
-0.37812427 -0.97690868 -0.50756145
-0.37260476 -0.96324086 -0.50094253
-0.37814063 -0.95637733 -0.50070071
-0.37337846 -0.94597238 -0.50392795
-0.37294462 -0.93759561 -0.50683206
-0.37670279 -0.9272024 -0.50403601
-0.37383261 -0.91209328 -0.50920361
-0.37148383 -0.90361577 -0.50629884
-0.37744051 -0.89059919 -0.50439632
-0.37256217 -0.88971275 -0.5086996
-0.37955856 -0.87482333 -0.50627995
-0.37201706 -0.86537933 -0.50254172
-0.37476471 -0.85857093 -0.50259537
-0.37377796 -0.84611058 -0.50006145
-0.37163979 -0.8379879 -0.50180119
-0.37359178 -0.8268922 -0.50521225
-0.37361816 -0.81635237 -0.50192899
-0.3763833 -0.80017501 -0.50646174
-0.3769592 -0.79280335 -0.50158709
-0.37303802 -0.78368771 -0.50231206
-0.37089333 -0.77619016 -0.50770497
-0.37011704 -0.7641474 -0.5024972
-0.37368223 -0.75073928 -0.50494665
-0.37320113 -0.74002385 -0.50793791
-0.37287793 -0.73880243 -0.50889266
-0.37160072 -0.72533816 -0.5014773
-0.37343472 -0.71794897 -0.50959569
-0.37418017 -0.7080372 -0.50145614
-0.37890449 -0.69583464 -0.50442797
-0.37872905 -0.68108559 -0.50526845
-0.37368569 -0.67386818 -0.50757569
-0.37388417 -0.66615164 -0.5056144
-0.37530777 -0.6562351 -0.50497144
-0.37889647 -0.64965689 -0.50482202
-0.37744555 -0.63115984 -0.50763893
-0.37929565 -0.62776339 -0.50254166
-0.37625811 -0.61018974 -0.50430608
-0.37593019 -0.60999757 -0.50902116
-0.37127739 -0.5918656 -0.50362742
-0.37538633 -0.58483106 -0.50385219
-0.37835985 -0.57340997 -0.50928462
-0.37279713 -0.5645206 -0.5037089
-0.37504977 -0.55105287 -0.50871783
-0.37926388 -0.5475142 -0.50985426
-0.37510994 -0.53655905 -0.50603664
-0.37426418 -0.52722251 -0.50296921
-0.37760636 -0.51334339 -0.50226957
-0.37006357 -0.50023478 -0.50516528
-0.37391734 -0.49800164 -0.50397688
-0.3736586 -0.48772752 -0.50518173
-0.37339765 -0.47843632 -0.5023002
-0.37869084 -0.46953505 -0.5082773
-0.37427464 -0.45637146 -0.50112009
-0.37349218 -0.44612199 -0.50616604
-0.37522113 -0.43905154 -0.50130785
-0.37534395 -0.42815462 -0.50962907
-0.37389281 -0.41969192 -0.50536376
-0.37658411 -0.40846744 -0.50627095
-0.37561089 -0.39440244 -0.50442827
-0.37481183 -0.38203859 -0.50647438
-0.37913275 -0.37853584 -0.50665843
-0.37596592 -0.36284223 -0.50709289
-0.37028018 -0.35486877 -0.50508326
-0.37406522 -0.34210244 -0.50145459
-0.37552392 -0.33030969 -0.50754863
-0.37659752 -0.32268289 -0.50873667
-0.37812802 -0.31796768 -0.50067818
-0.37638286 -0.30437377 -0.50143766
-0.37386289 -0.29826027 -0.50614077
-0.37368309 -0.28032997 -0.50095177
-0.37449139 -0.27229393 -0.5085367
-0.37601811 -0.26276946 -0.50473452
-0.37407896 -0.25344071 -0.50412852
-0.37212145 -0.24345948 -0.50118244
-0.37939674 -0.23940682 -0.50666112
-0.37243131 -0.22462155 -0.50837666
-0.37139177 -0.21471436 -0.50233203
-0.37318268 -0.20031087 -0.50875998
-0.37712911 -0.19322835 -0.50022972
-0.37346977 -0.18004981 -0.50290698
-0.37346581 -0.17738572 -0.50332427
-0.37794763 -0.16561177 -0.50198334
-0.37609261 -0.15030706 -0.503043
-0.37050322 -0.14624447 -0.50111294
-0.37791806 -0.13451597 -0.50800037
-0.37681785 -0.12046161 -0.50421053
-0.37510595 -0.11010122 -0.5066101
-0.37712502 -0.1070575 -0.50263011
-0.37929672 -0.095298365 -0.50352454
-0.37569338 -0.088357985 -0.50323159
-0.37744692 -0.079774097 -0.50526881
-0.37786469 -0.062404379 -0.50029886
-0.37501127 -0.055608559 -0.50858438
-0.37993988 -0.045739874 -0.50727504
-0.37315887 -0.032488551 -0.50634485
-0.37650207 -0.021449152 -0.50061381
-0.37158775 -0.019439127 -0.50496846
-0.37448478 -0.0046639852 -0.50595117
-0.37011182 0.0069447733 -0.50152779
-0.37371793 0.012351626 -0.50620204
-0.37043521 0.02154986 -0.50554013
-0.37661719 0.031393476 -0.50405937
-0.37848151 0.044297937 -0.50189304
-0.37429985 0.054661319 -0.50540614
-0.37224668 0.067659646 -0.50406635
-0.37262958 0.070443891 -0.50461274
-0.37943587 0.08982455 -0.50732362
-0.37569943 0.090344697 -0.50808209
-0.37243083 0.10360186 -0.50196576
-0.37848553 0.11068133 -0.50634611
-0.37516522 0.12381109 -0.50440425
-0.37536025 0.13193046 -0.50405705
-0.37385756 0.14651489 -0.50798213
-0.37861133 0.15365361 -0.500462
-0.37952608 0.16490892 -0.50479603
-0.376084 0.17773449 -0.50243336
-0.37392026 0.18344054 -0.50298572
-0.37042096 0.19034021 -0.50959778
-0.37269413 0.20679522 -0.50112975
-0.3717137 0.21279913 -0.50484031
-0.37862787 0.22978379 -0.504399
-0.37801516 0.23589392 -0.50893074
-0.37556788 0.24218029 -0.50414419
-0.37918073 0.25883555 -0.50220335
-0.37050846 0.2618455 -0.50442225
-0.37556645 0.27143657 -0.507029
-0.37010774 0.28376821 -0.50387228
-0.37904969 0.29525611 -0.50125676
-0.37016395 0.30959097 -0.50241864
-0.37206614 0.31802484 -0.50466448
-0.3739292 0.32626176 -0.5059911
-0.37901315 0.33552614 -0.50568599
-0.37322822 0.3459281 -0.50168043
-0.37742114 0.35036644 -0.50432146
-0.37553367 0.36231634 -0.50310004
-0.37982288 0.3794238 -0.50101268
-0.37341294 0.38583106 -0.50294131
-0.37241957 0.39285868 -0.50451332
-0.37126908 0.40990731 -0.50082034
-0.37455794 0.41465831 -0.50078249
-0.3713946 0.42508948 -0.50514239
-0.37574834 0.43422496 -0.5018391
-0.37910265 0.44948003 -0.50041693
-0.37239444 0.45344415 -0.50920534
-0.37479272 0.46446973 -0.50215304
-0.37141579 0.47950232 -0.50507969
-0.37835833 0.48806849 -0.50933677
-0.37060237 0.49566978 -0.50338221
-0.37873831 0.50699794 -0.50566858
-0.37309277 0.51424605 -0.50329375
-0.37156269 0.52051973 -0.50954729
-0.37131307 0.5371381 -0.50325507
-0.37448579 0.5498752 -0.50022811
-0.3755438 0.55751574 -0.50164825
-0.37821683 0.56097198 -0.50766402
-0.37150085 0.57435352 -0.50948864
-0.37039661 0.58836007 -0.50271755
-0.37312421 0.59682322 -0.50476062
-0.37594622 0.60536081 -0.5027768
-0.37751353 0.61877465 -0.50703621
-0.37243238 0.62155402 -0.50193971
-0.37910447 0.63612735 -0.50058448
-0.37654734 0.64438283 -0.50370181
-0.37243629 0.65838176 -0.50186682
-0.37517807 0.66074204 -0.50059396
-0.37668824 0.67539996 -0.50130171
-0.37054682 0.6846084 -0.50380069
-0.37415296 0.69322592 -0.50369656
-0.37703958 0.7064144 -0.50981957
-0.37441859 0.71309799 -0.50801533
-0.37843665 0.72345287 -0.50733536
-0.37320238 0.73456979 -0.50748521
-0.37237778 0.74745059 -0.50779229
-0.37743098 0.75177747 -0.50557816
-0.37588897 0.76585788 -0.50397325
-0.37151137 0.77497005 -0.50038582
-0.37393644 0.78067023 -0.50787616
-0.37840277 0.79850823 -0.50198716
-0.37505859 0.80588055 -0.50935251
-0.3731015 0.81204945 -0.50055492
-0.37426111 0.82280344 -0.50303572
-0.3763656 0.83662432 -0.50214475
-0.3774175 0.84117627 -0.50190693
-0.37953511 0.85434926 -0.50488955
-0.37381268 0.86188817 -0.50659233
-0.3725343 0.87137616 -0.50566012
-0.37490797 0.88409483 -0.50395656
-0.37796497 0.89712685 -0.50843501
-0.37002108 0.90957439 -0.50250685
-0.37167615 0.91749901 -0.50563198
-0.37303296 0.92784315 -0.50100034
-0.3735421 0.93582749 -0.50924844
-0.37099704 0.94909531 -0.50769949
-0.37223884 0.95372367 -0.50320721
-0.37570307 0.96510363 -0.50166368
-0.37639263 0.97149134 -0.50943881
-0.3715772 0.9888559 -0.50409979
-0.3752186 0.99775648 -0.50870299
-0.37144676 1.0057284 -0.50689673
-0.36865959 -1.0097187 -0.50393116
-0.36970025 -0.9933641 -0.50796491
-0.36511645 -0.98246562 -0.50643438
-0.36549082 -0.97976476 -0.5078972
-0.36505494 -0.96394992 -0.50629711
-0.36450931 -0.95464712 -0.50981706
-0.36094198 -0.94411862 -0.50216186
-0.36586341 -0.93182641 -0.50218546
-0.36027938 -0.92920667 -0.50523674
-0.36918542 -0.91137904 -0.5045895
-0.36104363 -0.90548384 -0.50905508
-0.36230239 -0.89273131 -0.5053066
-0.36801475 -0.88084579 -0.50279677
-0.3661828 -0.87239885 -0.50064439
-0.36574411 -0.86616868 -0.50268549
-0.36426771 -0.85008585 -0.50417298
-0.36172184 -0.84678781 -0.50615901
-0.36414057 -0.83273786 -0.50961816
-0.36896777 -0.8262918 -0.50081021
-0.36508062 -0.81794965 -0.50523949
-0.36578447 -0.80097705 -0.50138259
-0.36209548 -0.79106081 -0.50276637
-0.36770228 -0.78108412 -0.5046432
-0.36759681 -0.77178687 -0.50481331
-0.36283305 -0.76334685 -0.5077154
-0.36037397 -0.7579456 -0.50102806
-0.36347049 -0.74686116 -0.50470215
-0.36542663 -0.73622549 -0.50086021
-0.364263 -0.7244578 -0.50719011
-0.36442241 -0.7111721 -0.50938332
-0.36648935 -0.70788509 -0.50782037
-0.36205971 -0.69388372 -0.50506526
-0.36120516 -0.68722522 -0.50121766
-0.36242563 -0.67563701 -0.50946993
-0.36586043 -0.66151923 -0.50614691
-0.36402002 -0.659069 -0.50189924
-0.36530352 -0.64974558 -0.50758475
-0.36456814 -0.63392949 -0.50421512
-0.3694945 -0.62004322 -0.50858641
-0.36564726 -0.61526388 -0.50519556
-0.36924839 -0.60798591 -0.50984472
-0.36633033 -0.59133828 -0.50162148
-0.36992002 -0.58561409 -0.50629467
-0.36594495 -0.57814085 -0.50104618
-0.36470363 -0.56525308 -0.5053792
-0.36306587 -0.55585474 -0.50671095
-0.36202043 -0.54754645 -0.50579107
-0.36585063 -0.53087848 -0.50081289
-0.36810821 -0.52100366 -0.50310028
-0.36918557 -0.51937443 -0.50380111
-0.36439085 -0.50395596 -0.50628328
-0.36561304 -0.49893323 -0.50321949
-0.36016721 -0.4833906 -0.50935066
-0.3652533 -0.47441769 -0.50080329
-0.36530223 -0.46266663 -0.50973201
-0.3629162 -0.4538438 -0.50337648
-0.36171257 -0.44144595 -0.5015285
-0.36529317 -0.43934014 -0.50127602
-0.36756706 -0.42236897 -0.50631016
-0.36531746 -0.41515595 -0.50174183
-0.36507016 -0.40444827 -0.50725073
-0.36958256 -0.39172488 -0.50788015
-0.36340207 -0.38760567 -0.50155234
-0.36003369 -0.3710632 -0.50075948
-0.36165324 -0.36529204 -0.50588459
-0.36566922 -0.35365134 -0.50948769
-0.36636144 -0.34698567 -0.5018099
-0.36935669 -0.3319129 -0.50872368
-0.36919802 -0.32112688 -0.50633919
-0.36225039 -0.31293496 -0.50731695
-0.36033997 -0.30599841 -0.50489277
-0.36359623 -0.2987065 -0.50848407
-0.36749747 -0.28030732 -0.50803244
-0.36657438 -0.27760583 -0.50490177
-0.36142576 -0.26530316 -0.50864893
-0.36131528 -0.25497502 -0.50593573
-0.36745951 -0.24519786 -0.50728029
-0.36419478 -0.23111735 -0.50281626
-0.36083519 -0.22813 -0.50618392
-0.36887994 -0.21509868 -0.50463998
-0.36558267 -0.20379452 -0.5013479
-0.36140987 -0.19965348 -0.50263059
-0.36955214 -0.1890496 -0.50333101
-0.36981305 -0.17318085 -0.50743306
-0.36409289 -0.16857977 -0.50930101
-0.36100653 -0.15617515 -0.5053432
-0.36377478 -0.14451315 -0.50277615
-0.36296576 -0.13356084 -0.5060209
-0.36335728 -0.1252197 -0.50404203
-0.36473164 -0.11869236 -0.50538826
-0.36550829 -0.10683434 -0.50317562
-0.3691676 -0.092701063 -0.50109714
-0.36514649 -0.081748769 -0.50957543
-0.36337787 -0.07568977 -0.5060885
-0.3650142 -0.067551672 -0.50942612
-0.36454767 -0.055937394 -0.50054061
-0.36449471 -0.046382736 -0.50882316
-0.36845401 -0.031354614 -0.50244939
-0.36146322 -0.026415467 -0.50302535
-0.36224604 -0.01424443 -0.50466609
-0.3610568 -0.0086336564 -0.50932539
-0.36515799 0.0020306609 -0.50567746
-0.36885217 0.015038662 -0.50606203
-0.36265251 0.026886186 -0.50202334
-0.3679249 0.038880609 -0.50716078
-0.36445388 0.046518221 -0.50967747
-0.36373267 0.05917887 -0.50841379
-0.36228913 0.068898574 -0.50369036
-0.36403424 0.073647045 -0.50234318
-0.36530536 0.087461457 -0.50543112
-0.36967477 0.096788824 -0.50553107
-0.36685181 0.10205071 -0.50468814
-0.36066005 0.11717897 -0.50453049
-0.36932689 0.12370698 -0.50580919
-0.36667138 0.1396867 -0.50629908
-0.36547253 0.14138657 -0.50477642
-0.36620465 0.15385617 -0.5022561
-0.36942342 0.16752926 -0.50530505
-0.36676598 0.17792945 -0.50598276
-0.36129764 0.18968625 -0.50518483
-0.36290756 0.19943579 -0.50719184
-0.36336714 0.20266742 -0.50033212
-0.36226788 0.21713071 -0.50103331
-0.36934432 0.22225186 -0.50712329
-0.36321592 0.23790032 -0.50965929
-0.3686702 0.2494681 -0.50214511
-0.36659449 0.25297678 -0.50930828
-0.36747962 0.26359046 -0.50362742
-0.36612687 0.27444425 -0.50386494
-0.36507085 0.28437865 -0.5018338
-0.36728689 0.29429331 -0.50805688
-0.36352316 0.30942824 -0.50549871
-0.36949059 0.31969097 -0.50129831
-0.36155218 0.32334286 -0.50147212
-0.36198112 0.33178768 -0.50954467
-0.36605355 0.34002909 -0.50658906
-0.36457294 0.35910371 -0.50419134
-0.3616704 0.36287779 -0.50106341
-0.36181408 0.37007782 -0.50473958
-0.3625153 0.38709676 -0.50750631
-0.36069393 0.39918542 -0.50839001
-0.36506996 0.40401655 -0.50490791
-0.3611871 0.41961196 -0.50421441
-0.36897993 0.42766505 -0.50578266
-0.36355701 0.4383285 -0.50105149
-0.36349285 0.44622946 -0.50010198
-0.3696318 0.45947957 -0.50317782
-0.36032256 0.46585798 -0.50599247
-0.36294496 0.47675347 -0.50120884
-0.3658129 0.48013362 -0.50947803
-0.36218667 0.49592122 -0.50006771
-0.36293507 0.50743085 -0.50796628
-0.36853868 0.51186001 -0.50110269
-0.36964938 0.52213448 -0.50085044
-0.36995196 0.53873694 -0.50322145
-0.36501887 0.54395092 -0.50583911
-0.36540723 0.55548531 -0.50777745
-0.36358193 0.56496835 -0.50610828
-0.36678237 0.57534277 -0.50568217
-0.36160603 0.58362514 -0.5079422
-0.36302593 0.59003812 -0.50374293
-0.36033854 0.60230875 -0.50118423
-0.36829937 0.61114681 -0.50159651
-0.36701843 0.62805289 -0.50244629
-0.36693656 0.63301092 -0.50394785
-0.36550736 0.64275062 -0.50751489
-0.36414984 0.65530866 -0.50876558
-0.36923051 0.66441828 -0.50652087
-0.36116704 0.67220998 -0.50271392
